# .PCD v0.7 - Point Cloud Data file format
VERSION 0.7
FIELDS x y z
SIZE 4 4 4
TYPE F F F
COUNT 1 1 1
WIDTH 1428
HEIGHT 1
VIEWPOINT 0 0 0 1 0 0 0
POINTS 1428
DATA ascii
0.01365981 -0.41548207 1.7079374
0.018863551 -0.41555905 1.7081583
0.024572685 -0.4151082 1.706967
0.029508406 -0.41271803 1.7048879
0.03452795 -0.41385081 1.7014169
0.046865102 -0.41487056 1.6916857
0.050805058 -0.41524601 1.6893936
0.061327215 -0.41475776 1.6824017
0.065817907 -0.41264063 1.680784
0.068457082 -0.41450402 1.6788582
0.07398168 -0.41199678 1.6795061
0.15215236 -0.41667637 1.6472108
0.15200986 -0.41434389 1.6498916
0.0093243541 -0.41159272 1.7064888
0.014732585 -0.41191912 1.707709
0.019583147 -0.41195756 1.7079023
0.030739566 -0.41181177 1.7043697
0.035623975 -0.40998271 1.7012841
0.051097039 -0.41024259 1.6890638
0.056542344 -0.4102695 1.6854423
0.070071645 -0.40949497 1.6798985
0.077508345 -0.40808871 1.6820138
0.079990022 -0.40878791 1.681074
0.15351516 -0.40967903 1.6503686
0.0070938957 -0.40552947 1.7051171
0.012207204 -0.40489879 1.7064818
0.018795114 -0.40730563 1.707776
0.023466678 -0.40733773 1.7074904
0.030829653 -0.40679136 1.7050992
0.035641678 -0.40452322 1.7023325
0.039246641 -0.40775803 1.6991638
0.055647288 -0.40518668 1.6863239
0.061903965 -0.40503997 1.6822453
0.065592386 -0.40533194 1.6810199
0.071857683 -0.40499824 1.6785865
0.077411674 -0.40658015 1.677647
0.079994053 -0.40256694 1.6789992
0.15472698 -0.40416092 1.6496962
0.018384388 -0.40407076 1.7076207
0.023437819 -0.40284428 1.7075695
0.029765774 -0.40106404 1.7060229
0.041857496 -0.40420717 1.6979315
0.053838558 -0.40041855 1.6886915
0.07886216 -0.40316933 1.6811062
0.080766693 -0.39983344 1.6829691
0.080129355 -0.40025082 1.6755695
0.15295725 -0.405846 1.6457437
0.0075474503 -0.39979741 1.7047875
0.011814556 -0.3974064 1.7061188
0.021327335 -0.39809853 1.7074324
0.03432025 -0.39945966 1.703925
0.039867021 -0.39957905 1.7008001
0.04297284 -0.39897954 1.698408
0.07074482 -0.39856139 1.6796637
0.07735692 -0.39968628 1.6784024
0.083470568 -0.39713821 1.6783084
0.078243621 -0.39576489 1.6782976
0.15552612 -0.40148801 1.6478639
0.15506844 -0.39839956 1.6457505
0.15571214 -0.39798215 1.6478738
0.030410873 -0.3964408 1.7060485
0.042785093 -0.39460459 1.7000673
0.046814799 -0.39352632 1.6962694
0.059523426 -0.39368033 1.6850722
0.069448009 -0.39489725 1.6801231
0.15383187 -0.39791077 1.6427659
0.15674004 -0.39558235 1.6479201
0.15634273 -0.39450797 1.6471727
0.010095379 -0.39223778 1.7050672
0.017810095 -0.39184403 1.7071401
0.023096878 -0.39167681 1.7072324
0.029116604 -0.39176488 1.7068691
0.03581864 -0.39255863 1.7041829
0.037726559 -0.38873866 1.7039831
0.062292952 -0.39020747 1.6834766
0.068660855 -0.38877514 1.6806294
0.077294014 -0.39072749 1.6783501
0.15649548 -0.39423212 1.6458341
0.15760837 -0.38981745 1.6471007
0.0093074776 -0.38615209 1.7039423
0.017923582 -0.38580388 1.7068932
0.023354057 -0.38720131 1.7072774
0.027895609 -0.3850019 1.7075247
0.042007755 -0.3870627 1.7014488
0.074274398 -0.38726822 1.679355
0.0833387 -0.38805297 1.6769632
0.15718064 -0.39185277 1.6447991
0.15781608 -0.3905673 1.6460012
0.018023549 -0.38228509 1.7068667
0.022872275 -0.38251692 1.7075502
0.035797022 -0.38276285 1.7054256
0.040797547 -0.38273948 1.7031243
0.067152634 -0.38329801 1.6816082
0.073349051 -0.38293165 1.6795471
0.1589707 -0.38627303 1.6449896
0.15891212 -0.38278395 1.6456804
0.15877604 -0.38360208 1.6464309
0.015233632 -0.37848148 1.7058231
0.017734017 -0.37935567 1.7068712
0.02593587 -0.37628147 1.7077885
0.044595718 -0.37752819 1.7004266
0.050259046 -0.38031295 1.6946802
0.068303101 -0.37809938 1.6814033
0.073045835 -0.37866706 1.679598
0.088564135 -0.37907502 1.6797832
0.16125152 -0.38143033 1.6465321
0.15959547 -0.37763548 1.6452758
0.16083117 -0.37763849 1.648248
0.015597756 -0.37586132 1.7062135
0.029104022 -0.37562877 1.7080795
0.039436627 -0.37531701 1.7042536
0.048065834 -0.3758457 1.69723
0.06456399 -0.37514326 1.6837656
0.087068491 -0.37631229 1.6762688
0.091261104 -0.37145051 1.6817653
0.15923582 -0.37774065 1.6427034
0.026228197 -0.37034053 1.7081561
0.043974318 -0.37124589 1.7011306
0.046705753 -0.37054598 1.6983949
0.048512515 -0.36882618 1.6966783
0.068825431 -0.37123522 1.682134
0.082981274 -0.3715432 1.6766394
0.091634259 -0.36877468 1.680523
0.16183318 -0.37170663 1.6445825
0.16222377 -0.37139329 1.6461384
0.16178061 -0.37105438 1.6474112
0.016295053 -0.36713663 1.7058895
0.019329751 -0.36792824 1.7070506
0.023141382 -0.3661429 1.7077054
0.040340438 -0.3675456 1.7041396
0.044603709 -0.36596739 1.7008855
0.059485529 -0.36607158 1.6869724
0.064380273 -0.36669937 1.6846048
0.068521135 -0.36529076 1.6829168
0.073806114 -0.36775261 1.6801807
0.078705944 -0.36569366 1.6782043
0.085386463 -0.36750802 1.676204
0.091587842 -0.36736429 1.6769962
0.092887715 -0.36519474 1.680523
0.16273922 -0.3662934 1.6461762
0.016333351 -0.36343193 1.7057848
0.03566191 -0.36071667 1.7072321
0.043735877 -0.36376506 1.7017847
0.04632983 -0.36396012 1.6988703
0.084832892 -0.36462167 1.6758673
0.091494538 -0.36222887 1.6771952
0.089901261 -0.35970631 1.6786219
0.047085512 -0.36032909 1.6982989
0.063177779 -0.35803455 1.6857005
0.078255743 -0.35879788 1.6791989
0.082506657 -0.35900271 1.6770573
0.09405493 -0.35700217 1.6763136
0.093180224 -0.35394832 1.6786449
0.16274507 -0.36138645 1.6427046
0.16331895 -0.35954791 1.6440458
0.02147341 -0.35408217 1.7073137
0.030377124 -0.35524493 1.7086688
0.041980051 -0.35529497 1.703589
0.056419607 -0.35258567 1.6893675
0.07544183 -0.35481149 1.6808329
0.079534099 -0.35584989 1.6790352
0.084365301 -0.35603523 1.6759688
0.089953668 -0.35615569 1.6735638
0.16422001 -0.35751078 1.6421782
0.1659977 -0.35528538 1.6455337
0.015921259 -0.34829879 1.7046548
0.049146749 -0.35178408 1.6961126
0.076280303 -0.3514266 1.6811171
0.082751632 -0.35102549 1.6774908
0.087227099 -0.35155311 1.674039
0.094051637 -0.35158956 1.6727955
0.097365744 -0.34921071 1.6774012
0.050432064 -0.34523553 1.6948824
0.067138791 -0.34676841 1.6852083
0.082173757 -0.34568417 1.6781911
0.086668119 -0.34788939 1.674704
0.16738109 -0.34717941 1.6443728
0.016058689 -0.34347105 1.7044505
0.019058255 -0.34090486 1.7057537
0.023579907 -0.3404305 1.7078558
0.056676555 -0.34251624 1.6896162
0.087839529 -0.34453225 1.6742361
0.096631669 -0.34181762 1.6694132
0.098486774 -0.34066582 1.6747816
0.10264018 -0.33986551 1.675898
0.16834381 -0.34483051 1.643279
0.16849135 -0.34223735 1.6433131
0.015753493 -0.33918431 1.7042137
0.019176658 -0.33631364 1.7058557
0.047888286 -0.33780318 1.698482
0.052365109 -0.33756489 1.6936554
0.056775529 -0.3384755 1.6901349
0.063017294 -0.33920369 1.6872598
0.071368292 -0.33877552 1.6850976
0.083073959 -0.3377246 1.6775231
0.086690992 -0.33718574 1.6749388
0.092305452 -0.33955342 1.668938
0.10144132 -0.33659694 1.6741673
0.16880107 -0.34098738 1.6409913
0.16856991 -0.33752358 1.6408498
0.041345194 -0.33403015 1.705326
0.050836377 -0.33288684 1.6955453
0.05371407 -0.3340486 1.6925951
0.063620031 -0.33379385 1.6876553
0.092644684 -0.33460802 1.6681205
0.10410353 -0.33458206 1.6744635
0.10505859 -0.33302516 1.6743985
0.16955678 -0.33575404 1.640505
0.17069523 -0.33257958 1.6424543
0.016358418 -0.32998931 1.7039065
0.021256831 -0.33181757 1.7064459
0.026883496 -0.33163404 1.7085035
0.047013395 -0.32912236 1.6997119
0.057109449 -0.33199492 1.6906118
0.061829049 -0.33003718 1.688724
0.067143634 -0.33050162 1.6868415
0.074388638 -0.33126032 1.6847312
0.085404225 -0.33163264 1.6763914
0.10206985 -0.33011878 1.6727107
0.10587268 -0.33064687 1.6742436
0.17193565 -0.33047777 1.6425399
0.17117567 -0.32871634 1.6407424
0.02260326 -0.32623112 1.7066036
0.030663153 -0.32749122 1.7087622
0.053146087 -0.3284694 1.693653
0.066626854 -0.32472351 1.6876152
0.073896654 -0.32525796 1.6856755
0.086539067 -0.32699522 1.6767974
0.10664896 -0.32390788 1.6731164
0.17161246 -0.3257322 1.6397011
0.015370676 -0.32268834 1.7026044
0.025054818 -0.32116812 1.7070239
0.047386777 -0.32141489 1.6996446
0.052004393 -0.32067353 1.6954272
0.061476402 -0.32462192 1.6892908
0.06812945 -0.3212761 1.6875097
0.080706298 -0.32463941 1.6822692
0.089063197 -0.32262412 1.6751629
0.09369117 -0.32187083 1.667272
0.10883556 -0.32046795 1.6731576
0.17286105 -0.32549343 1.6410497
0.17312327 -0.32104918 1.6398115
0.018900586 -0.32032156 1.7039016
0.021328013 -0.31699508 1.7050228
0.03997349 -0.31805325 1.7057543
0.049223043 -0.31668031 1.6979272
0.060937967 -0.31911975 1.6895983
0.06880606 -0.31783935 1.6871918
0.073444843 -0.31785247 1.6861324
0.078093097 -0.3197493 1.6843178
0.092977382 -0.3183122 1.6717616
0.096183598 -0.3191388 1.6655139
0.10430101 -0.31968075 1.670084
0.10776546 -0.31751204 1.6724584
0.17320102 -0.31851986 1.6380121
0.17378707 -0.31681365 1.6395159
0.027022239 -0.3147597 1.7071128
0.031611629 -0.31225806 1.7075542
0.054066882 -0.31394309 1.6938688
0.057883777 -0.31307182 1.6912422
0.081220925 -0.31523246 1.6829917
0.084083833 -0.31629586 1.6804897
0.094458222 -0.31347734 1.6712635
0.10478409 -0.31571749 1.6700274
0.10596512 -0.31356418 1.6712874
0.10845827 -0.31337672 1.671872
0.17450961 -0.31772289 1.6418532
0.016121814 -0.30904177 1.7019078
0.021390876 -0.31170651 1.704339
0.027517596 -0.31172708 1.707072
0.029891189 -0.30849352 1.7071314
0.047758199 -0.3111802 1.7000227
0.053502258 -0.30866724 1.6944982
0.061112754 -0.30914754 1.6896814
0.06970381 -0.31221589 1.6872278
0.076276921 -0.31172857 1.6854324
0.087035865 -0.31130928 1.6793897
0.10503054 -0.31244573 1.6664016
0.11272927 -0.31029078 1.6726992
0.17612976 -0.31067029 1.6430588
0.17543627 -0.31365827 1.6425914
0.17467919 -0.31286997 1.6398511
0.021451466 -0.30511695 1.7040519
0.024375549 -0.30647057 1.7055006
0.046853706 -0.30691901 1.7008289
0.05129848 -0.30561781 1.6963482
0.057783753 -0.3052665 1.6912266
0.065924428 -0.30686805 1.6883003
0.071323045 -0.30811858 1.6871278
0.077986814 -0.30629268 1.6852297
0.084901951 -0.30822721 1.6819309
0.091959625 -0.30841148 1.6746854
0.10280377 -0.30839843 1.6629728
0.10959031 -0.30635628 1.671026
0.1130089 -0.30658603 1.6719807
0.17581701 -0.30655167 1.6394528
0.17528914 -0.30692735 1.6395363
0.028827446 -0.30260319 1.7068419
0.051497728 -0.3023904 1.6963223
0.053779207 -0.30430743 1.6942303
0.065008119 -0.30148059 1.6887615
0.088508509 -0.30293104 1.6794652
0.093285389 -0.30340198 1.6738455
0.10024331 -0.3019425 1.6628983
0.11319143 -0.30161977 1.6709158
0.17653856 -0.30440554 1.6431749
0.17607124 -0.30221155 1.6394268
0.17553081 -0.30326903 1.6383512
0.025452444 -0.30002719 1.7057067
0.03237471 -0.29815328 1.7071027
0.048321415 -0.29652894 1.6991054
0.052906156 -0.29892045 1.6949495
0.065670878 -0.29709432 1.6891905
0.069787562 -0.29971683 1.6879926
0.078068532 -0.30001527 1.6860594
0.089090712 -0.29711032 1.6802539
0.092415482 -0.29958305 1.676604
0.11325666 -0.30004212 1.6701547
0.1135354 -0.29631144 1.6696146
0.17695071 -0.29920769 1.6410571
0.17611928 -0.29755938 1.6383107
0.024670444 -0.29429615 1.7056857
0.065323539 -0.29340646 1.6894602
0.069488496 -0.293448 1.6884178
0.085900284 -0.29624963 1.6835924
0.095403224 -0.29510877 1.6729263
0.1111787 -0.29633144 1.6676773
0.17621906 -0.29752678 1.6376001
0.17668806 -0.29394689 1.639403
0.017318591 -0.29110605 1.7017434
0.022683389 -0.29150867 1.7042497
0.027836856 -0.29055214 1.7064121
0.051822446 -0.29221576 1.6961814
0.054697577 -0.29137716 1.6938097
0.060216147 -0.28889421 1.69109
0.067848518 -0.28885531 1.6892308
0.095172122 -0.29162923 1.6730906
0.098858304 -0.29003289 1.6662463
0.11158209 -0.29248944 1.6667674
0.11540101 -0.29207379 1.668807
0.1175419 -0.28889012 1.6687853
0.11780581 -0.29142129 1.669245
0.17720214 -0.2917434 1.6392808
0.17691809 -0.28954819 1.6376432
0.017683916 -0.28765902 1.7021116
0.025844995 -0.28580517 1.706181
0.066355959 -0.2850039 1.6900549
0.1129525 -0.28811827 1.6673307
0.11852771 -0.28518242 1.6680322
0.17782049 -0.28738031 1.6383544
0.1774441 -0.28552291 1.6380427
0.020811113 -0.28121912 1.703815
0.055213049 -0.28133923 1.6940542
0.062664934 -0.28460351 1.690766
0.093598843 -0.2847521 1.6778129
0.098534979 -0.28408176 1.6680439
0.11365827 -0.28337669 1.6667085
0.17824163 -0.28349781 1.6402495
0.024742674 -0.27974704 1.7061486
0.028558869 -0.27870962 1.7073485
0.051099595 -0.27758852 1.6975698
0.061236475 -0.27855292 1.6916319
0.065869592 -0.28061244 1.6905439
0.093398228 -0.28008047 1.6783302
0.11078934 -0.27944887 1.6604322
0.17836724 -0.27979085 1.6404403
0.17775968 -0.28104198 1.6376846
0.02053849 -0.27291608 1.7039362
0.025386252 -0.27237082 1.7063917
0.059175018 -0.2729153 1.6928223
0.095175259 -0.27406603 1.6773641
0.097202703 -0.27549458 1.672412
0.11191185 -0.27345389 1.6621246
0.11501572 -0.27673185 1.6658456
0.17851695 -0.2737672 1.6398358
0.17814319 -0.27467778 1.6383207
0.051492956 -0.26919034 1.6980522
0.060717028 -0.26987404 1.6929985
0.092896633 -0.2692171 1.6806169
0.1210994 -0.27116838 1.6672562
0.022206549 -0.26785564 1.7048053
0.024653368 -0.26452252 1.7059596
0.045772653 -0.26462209 1.702981
0.049029071 -0.26483056 1.7002667
0.052228998 -0.26493356 1.6976225
0.098085165 -0.26773944 1.672035
0.11093953 -0.26450047 1.6593162
0.11754268 -0.26744968 1.6660253
0.12233698 -0.26797163 1.667685
0.17856495 -0.26917446 1.6403741
0.17841306 -0.26958406 1.6376595
0.045835782 -0.2608152 1.7029964
0.058535259 -0.26431984 1.6939272
0.090890296 -0.26441139 1.6829959
0.097731568 -0.26428244 1.6704185
0.10104559 -0.26461035 1.6658791
0.17857967 -0.26191878 1.6408645
0.17854267 -0.26332912 1.6372405
0.020927642 -0.2579892 1.7030873
0.05777375 -0.25708833 1.6947047
0.095333911 -0.25886646 1.6770245
0.098889761 -0.25917676 1.6702687
0.10071809 -0.25903687 1.6651415
0.1080157 -0.25726506 1.6590613
0.17864345 -0.25832599 1.63512
0.025272427 -0.2545439 1.7048723
0.026028493 -0.25313279 1.7052703
0.037022673 -0.25444418 1.7070172
0.050005984 -0.25313449 1.7001126
0.05322798 -0.25287721 1.6975156
0.056616295 -0.25597301 1.6951658
0.06334465 -0.25361824 1.6927575
0.097055517 -0.25528747 1.6743248
0.098804787 -0.25580499 1.6714149
0.10708728 -0.25283983 1.6600827
0.11970512 -0.25702429 1.6663195
0.12300216 -0.25753072 1.6678145
0.17878506 -0.25710014 1.6405281
0.17923543 -0.25405428 1.6382577
0.17880966 -0.25731701 1.6360631
0.059300195 -0.25254151 1.6941909
0.096041612 -0.24993685 1.6764228
0.10276832 -0.24809618 1.6644616
0.11894501 -0.25132105 1.6659361
0.1791869 -0.25002643 1.6392452
0.022756554 -0.24665768 1.7026997
0.026933402 -0.24651241 1.7047446
0.058247838 -0.24731387 1.6948494
0.12158196 -0.24895996 1.6678658
0.17947978 -0.24587458 1.639962
0.023895685 -0.24130046 1.7027217
0.046314914 -0.24415179 1.7028338
0.051850408 -0.24335402 1.6993545
0.059516385 -0.24279559 1.6945672
0.096472561 -0.24320242 1.6771574
0.098352529 -0.24450609 1.6734488
0.11624429 -0.24344136 1.665421
0.052957304 -0.23807707 1.6986784
0.057561882 -0.23784588 1.6956949
0.098038502 -0.24004726 1.6752963
0.10289318 -0.23951125 1.6678935
0.11603806 -0.23990063 1.6663448
0.11780209 -0.23838866 1.6674784
0.17989042 -0.24189125 1.6394733
0.18049856 -0.23845401 1.6361107
0.02853651 -0.23601089 1.7046409
0.05207663 -0.23442489 1.6994368
0.057229962 -0.23323247 1.6962837
0.1015429 -0.23591085 1.6705481
0.18224458 -0.23233417 1.6362114
0.026582085 -0.22834842 1.7033571
0.029868068 -0.23155165 1.7048188
0.06010225 -0.22926064 1.6951753
0.098869592 -0.2322097 1.6751024
0.10171799 -0.23160924 1.6713591
0.10368114 -0.22982208 1.6700643
0.11775851 -0.23084784 1.6679245
0.024339432 -0.22607742 1.7019171
0.03119133 -0.22585385 1.705107
0.05616359 -0.22808617 1.6973768
0.09919937 -0.22524081 1.6761633
0.10834912 -0.22806804 1.6675302
0.11828632 -0.2259562 1.6684625
0.1838737 -0.22995412 1.6368147
0.027969806 -0.22419895 1.7037456
0.031554624 -0.2223752 1.7050157
0.055646252 -0.22084425 1.6983926
0.061364774 -0.22468105 1.6953547
0.10732536 -0.22366448 1.6690431
0.18902546 -0.22424608 1.6337161
0.027938472 -0.21981044 1.7037922
0.029298306 -0.21631472 1.7043102
0.057985526 -0.2176705 1.6974603
0.10694865 -0.21898423 1.6704565
0.11281791 -0.21938081 1.668525
0.19395541 -0.21978755 1.6312104
0.19731778 -0.21727295 1.6268501
0.025076404 -0.21264367 1.7024411
0.026040645 -0.21494032 1.7029308
0.033522777 -0.21334901 1.7053807
0.097189009 -0.21727628 1.6813589
0.11170113 -0.21515602 1.6694986
0.11766718 -0.21754256 1.6688542
0.19581896 -0.21826014 1.6325487
0.19990876 -0.21458058 1.6269621
0.20004378 -0.21466595 1.6261955
0.026158296 -0.20892119 1.7026535
0.028579704 -0.21178669 1.7039957
0.097912997 -0.21224192 1.6815994
0.10234642 -0.21368189 1.6762006
0.10706499 -0.21083112 1.6729368
0.12008319 -0.21345781 1.6695364
0.03077033 -0.20648915 1.7044935
0.099386349 -0.2080283 1.6807783
0.10471556 -0.20720848 1.6758626
0.11747958 -0.20623459 1.6704954
0.12060973 -0.2084928 1.6700597
0.20203952 -0.2058049 1.6291386
0.026549539 -0.20431389 1.7025281
0.029181339 -0.20359242 1.7036892
0.11930011 -0.20490657 1.6705611
0.12366415 -0.20548497 1.670316
0.20191982 -0.20249231 1.6283922
0.026558809 -0.19701244 1.7021384
0.03199973 -0.19967885 1.7041044
0.054807577 -0.19938689 1.6993153
0.20095743 -0.19823702 1.628387
0.20153823 -0.20127547 1.6284029
0.030041156 -0.19583474 1.7034421
0.057805493 -0.19570814 1.6979067
0.10219039 -0.19659327 1.6803156
0.19883542 -0.19379765 1.6327842
0.20020726 -0.19431017 1.6273364
0.029737351 -0.19178908 1.7028579
0.052370057 -0.19057924 1.7001696
0.057163849 -0.19156653 1.698157
0.10458008 -0.1922482 1.67917
0.028909313 -0.1874527 1.7021676
0.033293694 -0.18775509 1.7032919
0.044183943 -0.18794371 1.7028781
0.057232197 -0.18761775 1.6980568
0.19731484 -0.18739992 1.631241
0.19839208 -0.19003914 1.6301239
0.04710684 -0.18253462 1.7018733
0.19571018 -0.18233541 1.6314569
0.19641829 -0.18317853 1.6296185
0.026448488 -0.17683597 1.7006099
0.030612079 -0.17968959 1.7021676
0.037246764 -0.17922847 1.703142
0.044027809 -0.17710824 1.7025312
0.19445939 -0.17852947 1.6329823
0.021768505 -0.1733197 1.698698
0.029845918 -0.17437346 1.7016115
0.034343671 -0.17506753 1.7027692
0.041078199 -0.17287073 1.7027346
0.19421406 -0.17393596 1.6306697
0.02619816 -0.17210211 1.7003133
0.036106016 -0.17164654 1.7025499
0.19083138 -0.16963118 1.6371399
0.029228175 -0.16503769 1.7006236
0.03361037 -0.16589583 1.7015584
0.19269188 -0.168625 1.6319118
0.033390582 -0.16105981 1.7008868
0.039857566 -0.16324727 1.7016512
0.044327777 -0.16224146 1.7014009
0.1899696 -0.16420273 1.6365377
0.19171794 -0.16348045 1.6314527
0.041558243 -0.15748911 1.7007535
0.18959621 -0.1577778 1.6339498
0.028594144 -0.15660253 1.6992562
0.037870806 -0.15305118 1.6998128
0.04336312 -0.15234467 1.6997443
0.046472035 -0.15508476 1.7001253
0.19008796 -0.15492196 1.6307919
0.027085546 -0.14912882 1.6978511
0.033716653 -0.1526227 1.6994104
0.043268867 -0.14897345 1.6990111
0.18688583 -0.14971858 1.6360635
0.039158024 -0.14771765 1.6987227
0.048675638 -0.14428766 1.6974547
0.033888955 -0.14201955 1.6974068
0.040139139 -0.14433692 1.6980283
0.045466296 -0.14159068 1.6972232
0.056533746 -0.14092256 1.6955714
0.061884318 -0.14355616 1.6951647
0.18390219 -0.14200366 1.6383699
0.1867204 -0.14214191 1.6324298
0.038467951 -0.13931085 1.6970396
0.050212972 -0.13897999 1.6959424
0.05475378 -0.13757686 1.6948878
0.064315505 -0.13595206 1.6925467
0.08781331 -0.13894515 1.6860585
0.18314353 -0.13778219 1.6376607
0.039133225 -0.13309528 1.6955996
0.047775935 -0.13604875 1.6954705
0.18275052 -0.13436276 1.6369541
0.046192374 -0.13247186 1.6947942
0.052774824 -0.13179353 1.6935983
0.060118139 -0.13076669 1.691933
0.17888078 -0.12973522 1.6414084
0.18051502 -0.1294329 1.6382496
0.045489933 -0.12636529 1.6931919
0.050720543 -0.12723708 1.6927301
0.054858439 -0.12576765 1.6914392
0.059782993 -0.12622251 1.6905185
0.06806922 -0.12602012 1.6886113
0.081219777 -0.12616822 1.684008
0.084316857 -0.12590352 1.682766
0.18050882 -0.12767132 1.6363496
0.035563827 -0.12552863 1.693735
0.070408739 -0.1208741 1.6863064
0.077470466 -0.1223686 1.6844481
0.087932162 -0.12126463 1.6798096
0.09460637 -0.12152039 1.6777323
0.16565581 -0.12165855 1.6531671
0.17760451 -0.12522238 1.640529
0.17854169 -0.12213755 1.6362351
0.038961157 -0.11910422 1.6920222
0.043864075 -0.12127959 1.6920015
0.051576808 -0.12096295 1.6906251
0.071292326 -0.11896934 1.6852975
0.076164655 -0.11858449 1.683394
0.082723916 -0.11884607 1.6809095
0.098289117 -0.11717962 1.675099
0.16201362 -0.11737276 1.6542723
0.16498327 -0.11574337 1.6512241
0.17650403 -0.12060127 1.6391577
0.05766977 -0.11685741 1.6880031
0.061516684 -0.11602911 1.6869087
0.066990763 -0.1143775 1.6849023
0.08958739 -0.11688092 1.6775159
0.093628451 -0.11568702 1.6756219
0.10138207 -0.1129818 1.6729361
0.10542947 -0.1127089 1.6721244
0.11518314 -0.11447041 1.6708913
0.16065814 -0.11225191 1.6536728
0.16780703 -0.11577235 1.6483372
0.169816 -0.11434461 1.6449711
0.056105539 -0.11197886 1.6870977
0.067707442 -0.11118666 1.6834916
0.075558163 -0.11236723 1.6811162
0.08074905 -0.11244299 1.6789939
0.084938593 -0.11058783 1.6765823
0.095870554 -0.11246282 1.6738147
0.099927917 -0.10987069 1.6720542
0.10744694 -0.11013702 1.6710023
0.1137405 -0.10948502 1.669726
0.13169023 -0.11020217 1.6669745
0.16419055 -0.10854673 1.6490074
0.16737847 -0.1100118 1.6458496
0.17083439 -0.11068714 1.6415093
0.058158312 -0.10933794 1.6856009
0.064862244 -0.10714407 1.6827613
0.069978565 -0.10751496 1.6811507
0.095283315 -0.10775442 1.6720722
0.10798054 -0.10572984 1.6693463
0.11647058 -0.10655407 1.6678054
0.12197504 -0.10715107 1.6671245
0.12885676 -0.10516217 1.6651983
0.13374066 -0.10639243 1.664907
0.13864931 -0.10497956 1.6636027
0.15919882 -0.10468449 1.652249
0.073340259 -0.10460706 1.6785728
0.11623741 -0.10395425 1.667009
0.12325032 -0.10312774 1.6650742
0.16711193 -0.10488632 1.6439004
0.10619146 -0.10166288 1.6681993
0.11909165 -0.099860184 1.6644447
0.14081772 -0.099144816 1.6605226
0.14450181 -0.096287549 1.6581916
0.16556735 -0.099618077 1.6439674
0.16891958 -0.10060818 1.6394367
0.10943309 -0.095105499 1.6650394
0.12411293 -0.09601374 1.6616292
0.12780787 -0.097386561 1.661691
0.14141601 -0.091808438 1.6567557
0.14715019 -0.092293292 1.6555365
0.16700603 -0.095489867 1.6403526
0.12395436 -0.093315355 1.6602361
0.14974619 -0.088196933 1.6524839
0.15394378 -0.089049093 1.6510924
0.1585885 -0.089168794 1.6479341
0.16395466 -0.092226818 1.6432955
0.1144262 -0.08857847 1.6604955
0.14313921 -0.086787075 1.6535974
0.14809567 -0.08586821 1.6516778
0.15196225 -0.083432168 1.648352
0.16062553 -0.084885851 1.6430624
0.12039872 -0.084600143 1.656913
0.12531142 -0.081272386 1.6536716
0.13335639 -0.082527705 1.6525074
0.14255634 -0.082711287 1.6511298
0.14964288 -0.081853747 1.6486742
0.15837447 -0.080966465 1.6421936
0.12765768 -0.080634855 1.6525736
0.14245293 -0.079170011 1.6485854
0.14824107 -0.079442963 1.6468376
0.15040755 -0.078480072 1.6448421
-0.039699815 -0.76314133 1.7324338
-0.034753188 -0.76043457 1.7345212
-0.038676318 -0.75955385 1.7317629
-0.042836938 -0.75149667 1.7293484
-0.048519768 -0.74700671 1.7291775
-0.044759169 -0.74905223 1.7290117
-0.028562564 -0.74320155 1.7274833
-0.04087742 -0.73944992 1.7274095
-0.035726998 -0.73917162 1.7273418
-0.028456001 -0.73951542 1.7261978
0.032957658 -0.73257369 1.7028719
-0.030276638 -0.73476642 1.7249068
-0.029149005 -0.73120165 1.7233043
-0.025491506 -0.72970319 1.7223583
0.0024214615 -0.7322284 1.7224255
-0.031539794 -0.72951657 1.7227
-0.018323138 -0.72689241 1.7233685
-0.011875386 -0.72696972 1.7248621
-0.0010798405 -0.72762626 1.7243165
0.044088624 -0.72263676 1.697342
-0.024010578 -0.72552115 1.7216179
-0.01615916 -0.72147113 1.7252219
0.0059013963 -0.72461915 1.7243571
-0.024117302 -0.72206903 1.7217848
-0.0075847548 -0.71402889 1.728424
0.01183883 -0.71672201 1.7253685
0.051265799 -0.71867764 1.6984903
-0.021761555 -0.71807271 1.7219653
-0.013965804 -0.71412712 1.7253506
0.052553445 -0.71653599 1.6967897
-0.021827843 -0.71419555 1.7215161
-0.019037651 -0.71319801 1.7232206
-0.014107758 -0.71147221 1.7250656
0.055238593 -0.71244186 1.6958107
0.055861514 -0.70862824 1.6907227
-0.017682489 -0.70918947 1.7224056
0.056787778 -0.70879096 1.6939838
-0.013522459 -0.70482498 1.7231241
0.059019055 -0.70195371 1.6957974
0.059115279 -0.7017315 1.691831
0.060738452 -0.69712973 1.6919032
-0.010119431 -0.70026863 1.7211033
-0.0041827592 -0.69536972 1.7204909
0.00085206871 -0.69155931 1.7204218
-0.0074663232 -0.69742215 1.7194599
-0.0020663713 -0.69263059 1.7183304
0.00098840892 -0.68956339 1.7163119
0.062528618 -0.69390476 1.6948735
0.062737405 -0.6930266 1.6936435
0.063491568 -0.69098824 1.6890198
0.069957212 -0.68849576 1.6707511
-0.0047549475 -0.69314927 1.7143726
-0.0024323142 -0.69198203 1.7156907
0.064398691 -0.68803883 1.6945431
0.065693885 -0.68431038 1.6851878
0.067996249 -0.68512255 1.6745998
0.0055127032 -0.68761629 1.7142621
0.007645234 -0.68544376 1.7124405
0.010547003 -0.68410778 1.7123771
0.017120924 -0.68232071 1.7132132
0.067676544 -0.68250847 1.6903833
0.067780919 -0.68022895 1.6891035
0.015058619 -0.68149382 1.7101684
0.018439576 -0.67786598 1.7082212
0.024734193 -0.67714429 1.7110347
0.025287149 -0.67422807 1.7091713
0.016210252 -0.67838681 1.7063906
0.023725675 -0.67268652 1.7055595
0.028613973 -0.67008102 1.7078297
0.026500084 -0.66793257 1.7046422
0.031164987 -0.6643371 1.7061619
0.073241301 -0.66743535 1.6868042
0.072810419 -0.66550207 1.6788102
0.0084411176 -0.66826642 1.6977265
0.031911708 -0.66064185 1.705297
0.074657686 -0.66506779 1.6913177
0.07680539 -0.65789807 1.6853343
0.034166951 -0.65439057 1.7044299
0.036077041 -0.64885873 1.7045344
0.029701995 -0.64789748 1.6997708
0.081354454 -0.64521194 1.6796194
0.037545249 -0.64087248 1.7037441
0.08180403 -0.64585865 1.6844932
0.083088174 -0.64277965 1.6856737
0.082882226 -0.64190823 1.6825273
0.039685052 -0.6367116 1.7042093
0.036118317 -0.63523358 1.7018975
0.086007103 -0.63631076 1.6836224
0.086145699 -0.63494653 1.6824025
0.087473355 -0.63349801 1.6739838
0.037724845 -0.63207608 1.7026527
0.040350847 -0.62977648 1.7037739
0.08815261 -0.63012129 1.6810373
0.039787296 -0.62557852 1.7030435
0.08869648 -0.6266371 1.6795931
0.039418381 -0.62215573 1.7028757
0.091099977 -0.62189776 1.6743859
0.03924498 -0.61770523 1.7026632
0.09176001 -0.62176234 1.682261
0.093251646 -0.61747152 1.671726
0.022984995 -0.61460763 1.7034248
0.037879352 -0.61307472 1.7020764
0.093188502 -0.61750656 1.6800901
0.093407936 -0.61561739 1.6791891
0.094104603 -0.61271304 1.6760746
0.021493273 -0.60918266 1.7049043
0.043647449 -0.60965675 1.7029173
0.095468462 -0.6115852 1.6794966
0.095444113 -0.60954988 1.6752461
0.018886119 -0.60717171 1.7061086
0.031658739 -0.6077311 1.702049
0.036817215 -0.60693163 1.7015986
0.097440213 -0.60443115 1.6753703
0.097712904 -0.6052615 1.6777261
0.098830037 -0.60051435 1.6738043
0.022974938 -0.59778112 1.7051111
0.032145258 -0.59691936 1.7017164
0.036936875 -0.59831899 1.7008281
0.044728 -0.59880346 1.7013915
0.050489977 -0.59690261 1.7027293
0.0072183302 -0.59532505 1.7096845
0.046527922 -0.59479052 1.7006457
0.10072925 -0.59475803 1.6715544
0.0084073087 -0.59014511 1.7093613
0.021663236 -0.5892756 1.7055233
0.029032579 -0.59221119 1.7025733
0.03203721 -0.58988529 1.701093
0.048036419 -0.58881426 1.6995449
0.10202098 -0.59358168 1.6739751
0.10291898 -0.58889663 1.6712523
0.010038047 -0.58527732 1.7088586
0.015415519 -0.58581018 1.706967
0.032357309 -0.58593005 1.7003977
0.036704637 -0.58776522 1.6993808
0.047162417 -0.58451533 1.6985048
0.10518391 -0.58777577 1.675773
0.10418297 -0.58351189 1.6687932
0.015687663 -0.58286738 1.7069749
0.051254295 -0.58114976 1.6988482
0.10517595 -0.58344948 1.6698163
0.026799049 -0.57795739 1.7019926
0.040196128 -0.58019966 1.697152
0.053185333 -0.57707822 1.6986675
0.10895717 -0.57621616 1.6708422
0.032091562 -0.57642955 1.6990843
0.046714552 -0.57346892 1.6956617
0.051646806 -0.57253695 1.6966691
0.032151069 -0.57121307 1.6982207
0.055612937 -0.57015336 1.6983732
0.11133023 -0.57414049 1.6738511
0.11122297 -0.57188898 1.6707678
0.0084481984 -0.56852633 1.7065768
0.036529001 -0.56877577 1.6957654
0.052300934 -0.56648964 1.6954159
0.056421742 -0.56388104 1.6976796
0.11359937 -0.5676105 1.6700184
0.1135374 -0.56686914 1.6705849
0.11341523 -0.56240344 1.6658437
0.039802257 -0.5647406 1.6938573
0.050490025 -0.56226635 1.6936642
0.055679068 -0.56159747 1.6963481
0.11602955 -0.56337923 1.6718979
0.057824664 -0.55618852 1.6969395
0.11569896 -0.55759585 1.6667708
0.058564443 -0.55247134 1.6965643
0.11930839 -0.55627543 1.6706315
0.11780465 -0.55653113 1.6677747
0.11839098 -0.55569887 1.6692721
0.11819182 -0.55380589 1.6661804
0.056105155 -0.55107844 1.6939181
0.11945136 -0.55096787 1.6662518
0.058915012 -0.54511279 1.6942823
0.12089884 -0.55002332 1.6672461
0.12158249 -0.54647225 1.665598
0.12199759 -0.54507071 1.6661574
0.057336781 -0.53819102 1.6900411
0.062056348 -0.53628403 1.6953138
0.046074878 -0.53464812 1.6862887
0.060530286 -0.53369373 1.6930932
0.12518807 -0.53679293 1.6634117
0.12649174 -0.53569263 1.6662086
0.12514122 -0.53385586 1.662536
0.05842774 -0.53282112 1.6891627
0.063025765 -0.52847052 1.6949123
0.12853943 -0.53094572 1.6655689
0.12753336 -0.52967292 1.6620481
0.046872761 -0.52912509 1.685183
0.059489191 -0.5274635 1.6880829
0.12945546 -0.52684677 1.6643096
0.047306728 -0.5250808 1.684546
0.13060004 -0.52360517 1.6645758
0.044987042 -0.5181331 1.6844462
0.13121863 -0.52132738 1.6635187
0.13149671 -0.51863444 1.6625839
0.13299534 -0.51442361 1.6625556
0.13298927 -0.51309574 1.6627389
0.045748368 -0.51120228 1.683208
0.06473276 -0.51021075 1.691644
0.13304697 -0.50920153 1.6595644
0.1332131 -0.5086779 1.6602988
0.13482226 -0.50658643 1.6620502
0.13391963 -0.50409526 1.6593844
0.045349203 -0.5032568 1.6819075
0.064524554 -0.50458568 1.6864351
0.066625871 -0.50096005 1.6922239
0.13533168 -0.50606841 1.6610188
0.046077251 -0.49814174 1.6811796
0.067070082 -0.49792126 1.6915303
0.13665935 -0.50224394 1.6623521
0.13526534 -0.49954709 1.6597755
0.06755092 -0.49350277 1.6902331
0.068102784 -0.48969579 1.6895919
0.067612618 -0.49058571 1.6888865
0.13800129 -0.48968214 1.661003
0.13749827 -0.4899298 1.6608329
0.0084967697 -0.4847928 1.7071487
0.046309188 -0.48643842 1.6806036
0.067989446 -0.4877187 1.6899909
0.1382634 -0.4892709 1.6599847
0.010237107 -0.48096487 1.7067964
0.068316683 -0.48342881 1.689034
0.068418786 -0.48039344 1.688984
0.13966559 -0.48454967 1.6612507
0.13815399 -0.48322061 1.6585602
0.013734274 -0.47745395 1.7055471
0.04626907 -0.47997737 1.6814214
0.14001364 -0.47730693 1.6587875
0.070600405 -0.47434133 1.6882088
0.069051713 -0.47433957 1.6886157
0.14117549 -0.47216958 1.6586448
0.069706544 -0.4703677 1.6832817
0.071435906 -0.47023907 1.6911153
0.14245032 -0.46786535 1.6574984
-1.5836591e-05 -0.46785122 1.7107136
0.0040321918 -0.46657565 1.7101851
0.067073897 -0.46589947 1.6802264
0.070195943 -0.46769992 1.6878743
0.070445739 -0.46549162 1.6885176
0.14417179 -0.46829087 1.6597002
0.0053979224 -0.46311414 1.7098346
0.009044678 -0.46259534 1.7092564
0.016950477 -0.46187213 1.7057464
0.066739649 -0.46249482 1.6799492
0.070640899 -0.46410337 1.6828249
0.070614286 -0.4603399 1.6877209
0.14359106 -0.46418601 1.656126
0.0051182946 -0.45743278 1.7098062
0.01137194 -0.45830455 1.708715
0.015807446 -0.4582617 1.7069472
0.019576384 -0.4582687 1.7048329
0.030970085 -0.45594296 1.6970217
0.066157997 -0.45816457 1.6790555
0.073540181 -0.45709318 1.6901743
0.0016217785 -0.45301688 1.7094085
0.014751785 -0.45428094 1.7077014
0.018931258 -0.45460472 1.7057208
0.02323336 -0.45438483 1.7031021
0.14653488 -0.45589358 1.6574305
0.0036530294 -0.44979703 1.7093815
0.012618701 -0.45169193 1.7085836
0.024041716 -0.44842818 1.7030485
0.069218874 -0.45304501 1.6784995
0.016556514 -0.44752076 1.7074472
0.020434337 -0.44724026 1.7058749
0.061624784 -0.448351 1.6792951
0.0073504406 -0.44362563 1.7089388
0.014644032 -0.44273597 1.7083029
0.024752868 -0.44091696 1.7038034
0.035432 -0.44204104 1.6958203
0.0611935 -0.44442585 1.6789666
0.073259786 -0.44377971 1.6870431
0.14896441 -0.44687292 1.6541762
0.14913236 -0.44079381 1.6562512
0.019757932 -0.43883514 1.7068472
0.060239844 -0.43923008 1.6797664
0.07541123 -0.43891099 1.6881533
0.15084499 -0.44085601 1.6546847
0.15005766 -0.43935496 1.6561527
0.14902343 -0.43564403 1.6534301
0.0099159842 -0.43435222 1.7082121
0.013404595 -0.4355846 1.7082829
0.017107364 -0.4357214 1.7076232
0.039846256 -0.43318495 1.693387
0.05775461 -0.4353236 1.6810665
0.076900885 -0.43559489 1.6887269
0.15126327 -0.43624297 1.65337
0.015034422 -0.42823189 1.7082337
0.017981645 -0.43132579 1.7076771
0.022049034 -0.42813653 1.7066311
0.055139113 -0.42997575 1.6830459
0.074019857 -0.42913401 1.6865672
0.078200549 -0.42837191 1.6847236
0.15277077 -0.43180785 1.6544321
0.15114193 -0.43208271 1.6548327
0.0096068662 -0.42815113 1.7077179
0.026640477 -0.42644671 1.7047148
0.030575627 -0.42430738 1.7018532
0.055154618 -0.42583254 1.6832081
0.1507992 -0.42888957 1.6523913
0.15154533 -0.42684689 1.6540579
0.0097075189 -0.42115623 1.7071493
0.013006437 -0.42387334 1.7080226
0.021017805 -0.42312029 1.7074819
0.025341379 -0.42308965 1.7060052
0.029616548 -0.41975796 1.7031486
0.056276135 -0.42178756 1.6832523
0.062631816 -0.42198032 1.6803581
0.15320873 -0.42288256 1.6518435
0.15239054 -0.42244002 1.6545589
0.014654486 -0.41719535 1.7079566
0.041367348 -0.41652957 1.694849
0.052880909 -0.41663259 1.6867518
0.070894539 -0.41767183 1.6778396
0.15349725 -0.41765508 1.6537105
0.15283304 -0.41800734 1.6534462
0.010476699 -0.41525587 1.7070297
0.021283947 -0.41513097 1.7077171
0.025567183 -0.41450498 1.7064353
0.03222381 -0.41539463 1.7020679
0.037502356 -0.41312411 1.6986512
0.043207441 -0.41294101 1.6942711
0.079966709 -0.41437942 1.6789623
0.081086472 -0.41314375 1.6849762
0.011880097 -0.4101592 1.7066879
0.035223562 -0.40930814 1.7009066
0.047995541 -0.40853813 1.6914036
0.060480863 -0.41021034 1.6818002
0.015670568 -0.40790302 1.7074668
0.027261922 -0.40640357 1.7062978
0.032545932 -0.40687844 1.7035854
0.03705902 -0.40468892 1.7008039
0.039743349 -0.40689304 1.6982082
0.044805974 -0.40682366 1.6939951
0.079606786 -0.40963879 1.6794802
0.084761687 -0.40480822 1.6841209
0.083693914 -0.40423247 1.6865476
0.15422526 -0.41098678 1.6482852
0.15657711 -0.40786684 1.6532649
0.01174139 -0.40130019 1.7061867
0.01727736 -0.40266904 1.7072544
0.024004251 -0.40303805 1.707222
0.02739875 -0.40031675 1.7065278
0.032630987 -0.40109381 1.7043391
0.037007257 -0.40085208 1.7018942
0.049855288 -0.40294206 1.6908435
0.066430353 -0.40087605 1.6805385
0.15615419 -0.40721682 1.6501849
0.15692942 -0.40228182 1.6531992
0.017807921 -0.39903018 1.7072643
0.023731669 -0.39936292 1.7072399
0.05471513 -0.39860514 1.6872346
0.059264597 -0.39908022 1.6839871
0.086068779 -0.39832282 1.6832296
0.08348991 -0.39519739 1.6836737
0.15611106 -0.4037461 1.648797
0.15721558 -0.39816937 1.6508702
0.0142048 -0.39538324 1.7063277
0.027027255 -0.39605007 1.7066336
0.040539037 -0.39318693 1.7013105
0.049085259 -0.39498138 1.6927196
0.053342015 -0.39379176 1.6887903
0.065410323 -0.39524159 1.6814442
0.075227514 -0.39431423 1.6786739
0.084776759 -0.39553183 1.6796678
0.1573344 -0.40009362 1.6489559
0.15856075 -0.39437816 1.651538
0.015103038 -0.38956475 1.7062035
0.026782939 -0.39195076 1.7069188
0.033097986 -0.39177626 1.7052451
0.053630237 -0.38922095 1.6892233
0.058667663 -0.3913269 1.6850195
0.087509826 -0.39276373 1.6819367
0.084989354 -0.39058623 1.6827446
0.16024463 -0.39083445 1.6519468
0.15907994 -0.39041659 1.6502279
0.033107027 -0.38771731 1.7056204
0.039125334 -0.38513497 1.7033336
0.054837465 -0.38432169 1.6893828
0.058927964 -0.38446492 1.6857939
0.071061112 -0.3870095 1.6796919
0.089016438 -0.38691181 1.6813331
0.089993015 -0.38276565 1.6850212
0.16068074 -0.38645086 1.6507353
0.15970881 -0.38803643 1.6499038
0.15984809 -0.38626045 1.6497272
0.015705358 -0.38385481 1.7059745
0.027986988 -0.38097516 1.7075987
0.031578247 -0.38255611 1.70662
0.046296399 -0.38175869 1.6984069
0.051561065 -0.3827689 1.6926199
0.065312915 -0.38399124 1.6821159
0.081347473 -0.3836064 1.6774812
0.087237969 -0.38215971 1.6774734
0.090151459 -0.38383672 1.6840019
0.16030928 -0.3836154 1.6492261
0.16095719 -0.38253984 1.6506565
0.020247377 -0.37935156 1.7069672
0.023117006 -0.37986282 1.7075402
0.032675188 -0.37779447 1.7069831
0.036127403 -0.37732902 1.7056156
0.041896854 -0.38001868 1.7019373
0.05323847 -0.37766588 1.6916604
0.057467289 -0.37860802 1.6872742
0.064667091 -0.37837842 1.6826048
0.070684962 -0.37864259 1.6802636
0.078007571 -0.3777594 1.6778424
0.088926129 -0.37999293 1.6786814
0.09016186 -0.37816486 1.6834795
0.1610485 -0.37770554 1.6481496
0.020941986 -0.37218037 1.7071965
0.046551466 -0.37607816 1.6981345
0.048779797 -0.37530953 1.6955295
0.057692759 -0.37448552 1.6872247
0.071696185 -0.37440929 1.6801521
0.08615005 -0.37586713 1.6774349
0.090661176 -0.37472486 1.6791013
0.16374108 -0.3762618 1.6499511
0.016941989 -0.37092018 1.7060481
0.031540658 -0.37208247 1.7076674
0.036434233 -0.36920857 1.706046
0.051632352 -0.37072363 1.6928513
0.056215566 -0.36921293 1.6887391
0.061023094 -0.36873412 1.6854095
0.067109048 -0.37088567 1.6823456
0.071849324 -0.37226227 1.6802156
0.092503227 -0.37141997 1.6787857
0.16211262 -0.37242475 1.6477729
0.027559442 -0.36473638 1.7082475
0.031989891 -0.36640188 1.7078218
0.037186768 -0.36673003 1.7056143
0.049823627 -0.36604461 1.6947802
0.053898055 -0.36676741 1.6911726
0.069070615 -0.36555424 1.6823875
0.16519532 -0.36628401 1.6502098
0.16412207 -0.36771238 1.6500798
0.020404454 -0.36078387 1.7068024
0.026116714 -0.36041057 1.7081664
0.032106876 -0.36039841 1.708181
0.039992124 -0.3641437 1.7040669
0.050119646 -0.36170855 1.6944294
0.053389102 -0.36204991 1.6911395
0.057531923 -0.36243814 1.6878597
0.089554556 -0.36227757 1.6757761
0.094560325 -0.36124906 1.6768155
0.097800188 -0.36143535 1.6799858
0.16383235 -0.36578804 1.646021
0.16430929 -0.36231697 1.6475328
0.020875184 -0.35950387 1.7071953
0.040458892 -0.35944095 1.7040223
0.044154715 -0.35971722 1.7011633
0.058672015 -0.3563523 1.6875485
0.06725882 -0.35972548 1.683857
0.071730137 -0.35910678 1.6817837
0.098155193 -0.35733902 1.6794834
0.16614477 -0.36125767 1.6481611
0.16530125 -0.35764733 1.6470995
0.027486034 -0.35614306 1.7084666
0.035495762 -0.35633817 1.7074345
0.047241263 -0.35559624 1.6973065
0.051567748 -0.35493243 1.6929717
0.067900769 -0.35507992 1.6839902
0.071738832 -0.35484886 1.6823924
0.097082816 -0.35510746 1.6754464
0.1675975 -0.35705513 1.6493968
0.16599387 -0.35356909 1.6459073
0.019974582 -0.34901974 1.7064303
0.026707249 -0.3504059 1.7085057
0.031327095 -0.35157511 1.7085229
0.037953489 -0.35174465 1.7063931
0.042554736 -0.35058215 1.7031057
0.046246324 -0.34884006 1.6992059
0.049796965 -0.34956744 1.6948911
0.052865803 -0.34958917 1.6917752
0.062678404 -0.35076708 1.6859684
0.071865156 -0.35052451 1.683017
0.078288913 -0.35256386 1.6795478
0.099140123 -0.34934253 1.6753626
0.023565352 -0.3460196 1.7079484
0.029934442 -0.34738344 1.7085841
0.039688811 -0.34666049 1.7055333
0.051995151 -0.34505016 1.6929454
0.057224959 -0.34604979 1.6886348
0.074933141 -0.3459678 1.682444
0.10337012 -0.34530178 1.6778207
0.16832244 -0.34961742 1.6462767
0.022505296 -0.34313458 1.7070866
0.027975775 -0.34177789 1.7087915
0.044708967 -0.34443361 1.701414
0.047748569 -0.34192297 1.6974438
0.059844784 -0.34266728 1.6876957
0.072779022 -0.34071812 1.6840606
0.078982919 -0.34430364 1.6804404
0.10281951 -0.34539506 1.6753299
0.16987517 -0.34543484 1.6462013
0.020453483 -0.33993563 1.7061173
0.031022375 -0.33928424 1.708639
0.039700922 -0.33938694 1.7060505
0.044801846 -0.33854657 1.7015129
0.05748935 -0.33805606 1.6894647
0.067085616 -0.33917621 1.6856236
0.077923134 -0.34019828 1.6814514
0.079409905 -0.33752593 1.6809405
0.10237812 -0.34066191 1.6744838
0.10775212 -0.33898476 1.676671
0.17034416 -0.33861509 1.6447242
0.17056867 -0.33796301 1.6460878
0.023975968 -0.33452246 1.7078184
0.027898753 -0.33491868 1.7088965
0.044096511 -0.33359745 1.7026002
0.055624746 -0.3359198 1.690881
0.062103532 -0.33373839 1.6877807
0.11107212 -0.33156833 1.6766394
0.17230223 -0.33683693 1.6484561
0.17172368 -0.33449122 1.646389
0.031566299 -0.3317185 1.7088552
0.038336553 -0.32981911 1.707112
0.049418554 -0.32861334 1.6968279
0.060374152 -0.32920977 1.6890405
0.069926567 -0.32996926 1.6858836
0.078850299 -0.3309623 1.682029
0.10796892 -0.3291916 1.6740505
0.17187555 -0.33100763 1.6441945
0.024412328 -0.32570896 1.7070533
0.027286373 -0.32739869 1.7082412
0.031595502 -0.32754704 1.7087727
0.035973281 -0.32464644 1.7078222
0.041617177 -0.32532221 1.7045697
0.06301254 -0.32455739 1.6885059
0.069646701 -0.32533145 1.6864747
0.075507253 -0.32676822 1.6844833
0.08539506 -0.32581744 1.6761477
0.17273811 -0.3258585 1.643434
0.032040298 -0.32118854 1.7082701
0.037986759 -0.32056096 1.7068473
0.038752064 -0.32419541 1.7064588
0.042725015 -0.32140031 1.7037386
0.049847275 -0.32430366 1.6964507
0.0568146 -0.32428232 1.6909988
0.069064222 -0.32149276 1.6868651
0.078153543 -0.32203519 1.6831642
0.083529182 -0.32451248 1.6789784
0.10408846 -0.32601249 1.6674961
0.11422566 -0.31978977 1.6754407
0.17382553 -0.32629195 1.6462929
0.17364989 -0.32526833 1.6468998
0.17370059 -0.32148108 1.6439892
0.17364255 -0.32051632 1.6423959
0.022857409 -0.31867021 1.7055044
0.027542297 -0.31905502 1.7075173
0.052372493 -0.31762871 1.6946419
0.055437133 -0.31884992 1.6924311
0.071211949 -0.31698444 1.6863509
0.11197355 -0.31632078 1.6735296
0.17500396 -0.3212769 1.6484555
0.17414057 -0.32200131 1.6443167
0.038863432 -0.31435961 1.7062705
0.04528505 -0.31616679 1.7018936
0.052814711 -0.31344798 1.6945146
0.064765394 -0.31403509 1.688243
0.075760089 -0.31645468 1.6848975
0.083756939 -0.31259999 1.6809944
0.088555619 -0.3160108 1.6757282
0.10961577 -0.31510755 1.6694427
0.11624463 -0.31268248 1.6742537
0.17547622 -0.31813115 1.6458389
0.17431611 -0.31704748 1.6440109
0.024972722 -0.30882773 1.7055287
0.044714577 -0.31178349 1.7024809
0.04850474 -0.31102997 1.6987956
0.056217805 -0.31201461 1.6922536
0.075592674 -0.31088373 1.6853114
0.08640039 -0.31209666 1.6786075
0.11337917 -0.30988884 1.6723665
0.17521419 -0.31045839 1.6421798
0.036853936 -0.30803615 1.7066213
0.045326117 -0.30701438 1.7017738
0.053692728 -0.30720389 1.6939116
0.065499805 -0.30731556 1.6879929
0.072051592 -0.30637065 1.6866341
0.079098225 -0.30607721 1.6843885
0.082998067 -0.30851987 1.6824636
0.087651864 -0.30654934 1.6788766
0.17591996 -0.30703267 1.6446787
0.03555394 -0.30109093 1.7066339
0.044549339 -0.30112615 1.7024823
0.048385687 -0.30239084 1.6993577
0.056995761 -0.30094773 1.6917892
0.060838994 -0.30189738 1.6900529
0.068601444 -0.3010121 1.6877664
0.073656172 -0.30099183 1.6864624
0.078006707 -0.3013196 1.6851311
0.085506774 -0.30277687 1.681863
0.090288155 -0.30178195 1.6768491
0.11460512 -0.3043139 1.6715523
0.17650604 -0.30253842 1.649111
0.023231816 -0.2996898 1.7043272
0.026882265 -0.29654559 1.7059189
0.050690901 -0.29927272 1.6965668
0.061985213 -0.2982516 1.6897955
0.083537839 -0.30075723 1.683935
0.08903084 -0.29794762 1.6793191
0.1182645 -0.29617783 1.6712621
0.17637463 -0.30152649 1.6450981
0.17591302 -0.30002642 1.6423068
0.027275205 -0.29561776 1.7062588
0.031715892 -0.29600188 1.7070079
0.036001783 -0.29528013 1.7068677
0.043721247 -0.29564828 1.702914
0.055709124 -0.29554048 1.6928093
0.062526777 -0.29382721 1.6899024
0.068569876 -0.29454073 1.6883857
0.074310154 -0.29559842 1.6871706
0.083647996 -0.29519945 1.6849841
0.089351557 -0.29383001 1.6803524
0.092683487 -0.29280892 1.6764662
0.11591372 -0.29691935 1.6697577
0.1770315 -0.29504973 1.6470705
0.17674607 -0.29588372 1.6457247
0.17656735 -0.29552042 1.6435688
0.029475486 -0.29079473 1.7068769
0.034646086 -0.29120579 1.7071421
0.043212954 -0.29091656 1.7036042
0.048545904 -0.28964892 1.6990994
0.058699992 -0.29172754 1.691375
0.063380726 -0.288564 1.6900729
0.074662179 -0.29035163 1.6880149
0.082608119 -0.29123101 1.686195
0.088181019 -0.28990948 1.6823324
0.117511 -0.29057968 1.6669925
0.17698281 -0.29061648 1.6430967
0.17651802 -0.29236048 1.6413144
0.023966944 -0.28682587 1.704994
0.028165478 -0.28487554 1.7066307
0.032134332 -0.28705928 1.7073932
0.040309772 -0.28468463 1.705301
0.053060051 -0.28760779 1.6952754
0.058473554 -0.28599468 1.692121
0.071372949 -0.28574854 1.6892608
0.075364709 -0.28622875 1.6886073
0.089708015 -0.28813052 1.6819559
0.092682488 -0.28737718 1.6777991
0.094087563 -0.28640804 1.6736269
0.12056362 -0.28810334 1.6687168
0.17771861 -0.29001683 1.6452965
0.17754667 -0.28924191 1.6446236
0.17734614 -0.28622904 1.6411872
0.024809321 -0.28141466 1.7054989
0.032911558 -0.28363159 1.7076523
0.044591103 -0.28310841 1.7028918
0.048001278 -0.28287596 1.6996663
0.05155085 -0.28118438 1.6966289
0.066559441 -0.28235903 1.6899631
0.073428966 -0.28112718 1.6896578
0.08210624 -0.28495738 1.68735
0.088419788 -0.28197849 1.6841488
0.11446237 -0.28418362 1.6629995
0.11969479 -0.28313631 1.6676689
0.12282121 -0.2837463 1.6698889
0.1776911 -0.28373614 1.6479419
0.17804395 -0.28197885 1.6444976
0.17754383 -0.28215921 1.6398365
0.022505213 -0.2775352 1.7047775
0.038895633 -0.27707395 1.7065006
0.048834436 -0.27799261 1.6991564
0.066727601 -0.27730942 1.69078
0.085151128 -0.27858749 1.6867561
0.12051448 -0.27856684 1.666895
0.12125701 -0.2801339 1.6679618
0.17785808 -0.2783424 1.6404095
0.043167457 -0.27573007 1.7039211
0.05980562 -0.27248904 1.6924741
0.065035105 -0.27331415 1.6915007
0.071590118 -0.27386633 1.6905259
0.080892868 -0.27663615 1.6886724
0.093707249 -0.27570501 1.6775961
0.12060266 -0.27407095 1.6660619
0.12126068 -0.27596489 1.667628
0.17810766 -0.27684149 1.6456723
0.17805174 -0.27396968 1.6401941
0.032921482 -0.27074447 1.7080299
0.03792388 -0.26851174 1.7070781
0.042372435 -0.27156389 1.7047633
0.046536773 -0.27192202 1.7015972
0.052525587 -0.27143088 1.6967188
0.068626821 -0.26934662 1.6911879
0.072624095 -0.2710616 1.6907864
0.076251261 -0.2725203 1.6902796
0.081649952 -0.27131894 1.6886536
0.093159087 -0.27097452 1.6799452
0.17860675 -0.2713339 1.6444483
0.026050407 -0.26768929 1.7064803
0.041969039 -0.26734874 1.7050884
0.054045398 -0.26595289 1.6961565
0.062245708 -0.26672557 1.6926562
0.065343469 -0.26505455 1.6919731
0.070433386 -0.26543725 1.6911995
0.074612044 -0.26597208 1.6906557
0.07985048 -0.26777816 1.6893786
0.085264385 -0.26579052 1.687307
0.092915624 -0.26516265 1.6802
0.094856881 -0.26778343 1.6758412
0.12018022 -0.26827458 1.6656435
0.17825358 -0.26613635 1.6453797
0.17827173 -0.26933223 1.6427448
0.17813508 -0.2690188 1.6374533
0.022126781 -0.26402938 1.7041441
0.025242319 -0.26275894 1.705549
0.029814038 -0.26051858 1.7072139
0.031785835 -0.26349714 1.707891
0.042073738 -0.26328364 1.705261
0.053776082 -0.26110184 1.6965613
0.057875257 -0.26132289 1.6943164
0.071334697 -0.26159528 1.6911607
0.079039678 -0.26277116 1.6897897
0.094682962 -0.26355875 1.6758112
0.12082252 -0.26245397 1.6656524
0.17811783 -0.26177284 1.645198
0.031271953 -0.25683653 1.7073325
0.039036158 -0.25853851 1.7065114
0.051751219 -0.25951165 1.6981968
0.063111193 -0.25899351 1.6927104
0.07018099 -0.25743741 1.691572
0.081695393 -0.2597388 1.6892579
0.0855297 -0.2600455 1.6873015
0.088653281 -0.25974253 1.6849893
0.094803728 -0.25923884 1.675292
0.098546796 -0.25937092 1.6679565
0.12345405 -0.25955281 1.6675229
0.17830126 -0.25802454 1.6412489
0.17825992 -0.26094422 1.6396585
0.028292866 -0.25252387 1.7058051
0.031129653 -0.25276029 1.7068418
0.043324791 -0.25621554 1.7045726
0.046409972 -0.25523594 1.7025815
0.050388653 -0.25469723 1.699494
0.071442552 -0.25331867 1.6915681
0.086807244 -0.25589854 1.6864792
0.09368521 -0.25455755 1.679667
0.094525762 -0.2540971 1.6772453
0.09697412 -0.25468302 1.6721125
0.12385 -0.25402689 1.6681914
0.1778305 -0.25722161 1.6452827
0.17853783 -0.25368363 1.6412542
0.035652108 -0.25213987 1.7070484
0.041713063 -0.25110272 1.7053177
0.046371318 -0.25043049 1.7025385
0.050824024 -0.24936666 1.6993088
0.063025065 -0.24891452 1.6932039
0.066096261 -0.25183511 1.6922438
0.092278644 -0.25045344 1.6822834
