# .PCD v0.7 - Point Cloud Data file format
VERSION 0.7
FIELDS x y z rgba
SIZE 4 4 4 4
TYPE F F F U
COUNT 1 1 1 1
WIDTH 1090
HEIGHT 1
VIEWPOINT 0 0 0 1 0 0 0
POINTS 1090
DATA ascii
0.30359465 0.15467298 0.75400001 4287732383
0.30239052 0.15609443 0.75100005 4287403932
0.37726355 0.16800472 0.75200003 4290363834
0.30473545 0.22347429 0.75100005 4282928711
0.37965915 0.22032407 0.75100005 4290824131
0.30980477 0.23849954 0.75300002 4286922315
0.36286843 -0.025257522 0.75800002 4279506699
0.38159654 -0.010881027 0.75800002 4282204473
0.31790274 0.054918729 0.75900006 4287073930
0.33761948 0.052730288 0.75700003 4287272346
0.34093374 0.052767362 0.75750005 4286153351
0.34885398 0.054935563 0.75900006 4287862679
0.35206768 0.054795593 0.75700003 4287600021
0.306815 0.058876574 0.75700003 4284687394
0.36963183 0.057024669 0.75900006 4284563517
0.37172154 0.059087776 0.75900006 4289572775
0.30190918 0.097583771 0.75500005 4284115318
0.37813437 0.10031605 0.75900006 4289837733
0.30351135 0.12072098 0.75900006 4284444796
0.37945011 0.13506366 0.75700003 4290100654
0.37945327 0.16281529 0.75650001 4290232247
0.30650219 0.17354976 0.75600004 4287666074
0.30864444 0.19409658 0.75600004 4288455851
0.30868673 0.20232201 0.75600004 4288783783
0.30788362 0.21137671 0.75900006 4288059544
0.37990674 0.21343003 0.75600004 4290758339
0.30634326 0.22260562 0.75500005 4282796357
0.38374457 0.22476248 0.75900006 4290889924
0.38267478 0.23341212 0.75650001 4290824386
0.38200536 0.24358015 0.75900006 4291807687
0.37995768 0.24773304 0.75900006 4292198853
0.37796205 0.2539911 0.75900006 4291611338
0.37382618 0.26020348 0.75900006 4283722079
0.37201348 0.26512137 0.75500005 4289973699
0.37151244 0.27244413 0.75800002 4289316537
0.37731734 -0.0088694161 0.76200002 4278782720
0.3121458 0.054991294 0.76000005 4285164391
0.31461716 0.055063464 0.76100004 4285559663
0.31667843 0.055063389 0.76100004 4285889657
0.32080314 0.055063609 0.76100004 4287139724
0.332434 0.055283505 0.76400006 4286942094
0.34861112 0.055222929 0.76300001 4287271058
0.367874 0.057392582 0.76400006 4285483080
0.37481937 0.069572017 0.76100004 4289377191
0.37458187 0.072622627 0.76050007 4289443237
0.30597028 0.075581707 0.76000005 4285751647
0.37582242 0.075966701 0.76300001 4288653206
0.38013721 0.10291785 0.76300001 4289969319
0.303909 0.11264315 0.76000005 4283131509
0.30551001 0.11944609 0.76400006 4284444030
0.30600688 0.15384267 0.76000005 4288060831
0.38109529 0.15216483 0.76000005 4290100400
0.3811554 0.15838301 0.76000005 4289969075
0.31128368 0.19265386 0.76250005 4288586922
0.38050169 0.19731149 0.76200002 4290494911
0.31071711 0.20158958 0.76100004 4288717990
0.38004839 0.20018271 0.76100004 4290626239
0.3099246 0.21484961 0.76400006 4287993751
0.38481909 0.22850198 0.76100004 4290889667
0.31053934 0.2344664 0.76000005 4289433496
0.38437831 0.23134671 0.76000005 4290889925
0.38346744 0.24243516 0.76200002 4290557873
0.31647471 0.24618548 0.76400006 4288498779
0.38241202 0.24725038 0.76400006 4290346887
0.37940568 0.25288343 0.76200002 4291939021
0.32294571 0.25882864 0.76400006 4280830268
0.37535566 0.26334649 0.76200002 4283589723
0.37390715 0.27211839 0.76300001 4281163083
0.33044824 0.27890876 0.76100004 4280638796
0.31253621 0.057500947 0.76600003 4284567627
0.32498798 0.055425704 0.76600003 4285297520
0.33330196 0.055428293 0.76600003 4287139729
0.33834878 0.055575039 0.76800001 4287600281
0.34925598 0.055655174 0.76900005 4286941065
0.35800219 0.057637528 0.76750004 4285888886
0.36269763 0.057557404 0.76633334 4285161311
0.36883628 0.05754273 0.76600003 4285219138
0.37353203 0.059706174 0.76700002 4284560432
0.31127286 0.06181271 0.76800001 4285802537
0.37589142 0.062874667 0.76750004 4288252544
0.30838534 0.078253552 0.76600003 4284240206
0.37730655 0.078344367 0.76600003 4284440911
0.30865291 0.082478292 0.76666665 4285492073
0.37886822 0.082611442 0.76700002 4286217065
0.38043651 0.086895429 0.76800001 4288979598
0.38214049 0.10554157 0.76700002 4289245596
0.30630895 0.11664692 0.76600003 4284246651
0.30922452 0.15337941 0.76800001 4288258204
0.31055024 0.173766 0.76600003 4287863967
0.38383853 0.18754488 0.76900005 4288189072
0.31351513 0.19091429 0.76800001 4288127141
0.38365859 0.1926803 0.76850003 4289244844
0.3123289 0.19848754 0.76500005 4288652458
0.38245404 0.19520061 0.76600003 4290034618
0.31274772 0.20083034 0.76600003 4288718505
0.31359819 0.20762345 0.76800001 4288783781
0.3831256 0.20702182 0.76700002 4291348165
0.38446683 0.21807458 0.76500005 4290824134
0.38601282 0.22104257 0.76800001 4288652965
0.38659444 0.22556408 0.76900005 4282534724
0.31378999 0.23483719 0.76800001 4287789439
0.36302507 0.2315069 0.76900005 4288259746
0.38648891 0.23282966 0.76850003 4285231727
0.38488376 0.23916066 0.76500005 4285037415
0.38557068 0.23645522 0.7665 4283390032
0.38456222 0.24202856 0.76750004 4286547306
0.38386559 0.24609944 0.76700002 4286924111
0.38108993 0.25098523 0.76700002 4288042078
0.37982979 0.25874335 0.76700002 4284436816
0.38071987 0.25515673 0.76900005 4287447629
0.37820745 0.26115888 0.76800001 4286673263
0.37737933 0.26685584 0.76600003 4285105017
0.3767921 0.27212 0.76900005 4282017878
0.37289265 0.27916309 0.76500005 4281754706
0.3686806 0.28331092 0.76500005 4280507208
0.37078604 0.28123677 0.76500005 4281426255
0.36306936 0.28673756 0.76900005 4287743668
0.36629227 -0.02578789 0.77400005 4279637769
0.32920069 0.055787925 0.77100003 4284705385
0.3312929 0.055788495 0.77100003 4288060828
0.34326202 0.055866461 0.77200007 4287863196
0.34813803 0.055978134 0.77350008 4287863196
0.35377699 0.057967868 0.77200007 4285558895
0.35601386 0.05782127 0.77000004 4285822836
0.36315367 0.060226969 0.77400005 4284554526
0.36715299 0.060194626 0.77350008 4284421914
0.37236989 0.060190961 0.77333337 4284751905
0.3764585 0.062270034 0.77300006 4284559659
0.37835023 0.067474499 0.77250004 4285417279
0.37795576 0.072633609 0.77166671 4282922794
0.37862372 0.078006312 0.773 4283185704
0.38027558 0.083148919 0.77200001 4283647282
0.3107993 0.08723215 0.77200001 4285428078
0.38193053 0.089328304 0.77100003 4287926139
0.38268605 0.092649333 0.77250004 4287399027
0.3685413 0.09802784 0.77400005 4280229392
0.37066659 0.098034851 0.77400005 4279966220
0.38220814 0.096719921 0.77149999 4284963144
0.38321754 0.10117269 0.77350008 4284045892
0.36645299 0.10852467 0.77400005 4283704853
0.38414419 0.10818726 0.77100003 4289442461
0.36115277 0.11060718 0.77400005 4284886815
0.38433281 0.11242614 0.7713334 4286085992
0.36720058 0.11833459 0.77399999 4285940008
0.37075049 0.1190508 0.77400005 4284295953
0.38394737 0.11754163 0.77050006 4288059783
0.36438623 0.12322719 0.77400005 4283512603
0.36627135 0.12210573 0.77350008 4284496672
0.38373014 0.1227009 0.77000004 4287797386
0.36652237 0.12533888 0.77400005 4283382300
0.38426247 0.12810341 0.77100003 4286742896
0.36869377 0.13376191 0.77400005 4287071093
0.38454053 0.13238567 0.77149999 4286018915
0.36870527 0.13586575 0.77400005 4287463019
0.384828 0.13772404 0.77200001 4287598979
0.36874813 0.14323133 0.77400005 4288123012
0.38448834 0.14344831 0.77266669 4287199591
0.31163105 0.14828175 0.77400005 4288258717
0.36451611 0.14846805 0.77400005 4285018918
0.36664134 0.14742844 0.77400005 4283378207
0.38407874 0.14727135 0.77250004 4286672733
0.31143418 0.15133108 0.77350008 4288389789
0.36453569 0.1516258 0.77400005 4286658600
0.36666125 0.15058643 0.77400005 4286200107
0.38494837 0.15244377 0.77200001 4288454027
0.36670363 0.15690456 0.77400005 4286466111
0.37525496 0.15696745 0.77400005 4282988338
0.38498643 0.15665253 0.77200001 4287994508
0.38550493 0.15896322 0.77300006 4287798160
0.36459893 0.16110308 0.77400005 4286020224
0.36673373 0.16111828 0.77400005 4287794057
0.37316519 0.16327567 0.77400005 4288322453
0.37529826 0.16223891 0.77400005 4286737766
0.38430959 0.16370262 0.77050006 4287666323
0.38502648 0.160863 0.77200001 4288126871
0.31256017 0.16862275 0.77100003 4287338139
0.36359411 0.16952509 0.77400005 4287598484
0.36679879 0.16955002 0.77400005 4287993751
0.37318286 0.16538467 0.77400005 4287797654
0.38410354 0.16779965 0.77000004 4287798425
0.3123658 0.1716492 0.77050006 4287666846
0.36397782 0.17304188 0.77399999 4288190362
0.36789468 0.17272256 0.77400005 4288257693
0.37646633 0.17279944 0.77400005 4287929759
0.38414878 0.17200404 0.77000004 4287864218
0.3647314 0.17796949 0.77400005 4288782753
0.36757168 0.17658752 0.77399999 4288455330
0.37757173 0.17597769 0.77399999 4288126882
0.38470733 0.17749257 0.77100009 4287664013
0.38427114 0.1825237 0.77000004 4287332222
0.3151392 0.18981072 0.77200001 4288192679
0.36052978 0.18637361 0.77400005 4291470510
0.37267733 0.18719549 0.77399999 4286401881
0.38433737 0.18778849 0.77000004 4288054917
0.37343183 0.19072683 0.77400005 4286599516
0.37775937 0.19289188 0.77400005 4284493369
0.38380426 0.19801216 0.773 4288323491
0.38160673 0.20237863 0.77280009 4288124314
0.38391078 0.20542707 0.77300006 4287794576
0.31524369 0.21080613 0.77200001 4288585890
0.36379069 0.21270096 0.77350008 4288584870
0.3846747 0.21100022 0.77000004 4290624957
0.38620818 0.21394488 0.77300006 4288717990
0.31358895 0.21948601 0.77300006 4288256409
0.3724547 0.21705255 0.77350008 4288388001
0.37593353 0.21724063 0.77400005 4287796635
0.38677955 0.21847467 0.77400005 4287468438
0.31402263 0.22398773 0.77400005 4282795843
0.36269903 0.22318412 0.77316672 4287008404
0.36791933 0.22240362 0.77240008 4287468695
0.37213218 0.22211741 0.77266669 4287534487
0.37701666 0.22252043 0.77383345 4286876817
0.38705724 0.22373739 0.77000004 4283126350
0.35755879 0.22850816 0.77350008 4286811793
0.36255002 0.22791417 0.77212507 4282075460
0.36662024 0.22731991 0.77040005 4280825901
0.37153381 0.22700606 0.77125007 4281944126
0.37649432 0.22732846 0.77333337 4282930251
0.38764066 0.22827439 0.77100003 4285166187
0.31579822 0.23214366 0.773 4285293924
0.35786474 0.23210688 0.77250004 4281747770
0.36140472 0.23291688 0.77100003 4283391063
0.3674168 0.23258746 0.77100003 4284904303
0.37249503 0.23262221 0.77137494 4284180067
0.37720066 0.23230812 0.77275002 4285232754
0.38237354 0.23310405 0.77333337 4284639849
0.38677764 0.23279881 0.77200007 4286876553
0.35471517 0.23922759 0.77400005 4279906587
0.35733193 0.23732524 0.77320004 4280103202
0.36206028 0.23747481 0.7713334 4286679684
0.36787796 0.23784378 0.77225006 4286152830
0.37291107 0.23776384 0.77240002 4285758076
0.37762541 0.23797432 0.77140009 4285297524
0.3824102 0.23666301 0.77200001 4285100399
0.38541126 0.23764342 0.77050006 4284508772
0.35453361 0.2422601 0.77350008 4287452494
0.3583881 0.24226986 0.7718572 4285810755
0.36291075 0.24258433 0.77066666 4283445554
0.36753368 0.24286842 0.7713334 4282331698
0.37262541 0.24320006 0.77125001 4284176208
0.37736106 0.24218981 0.77083331 4283389255
0.38199711 0.24167454 0.77000004 4284047173
0.3581053 0.24767242 0.77250004 4287640388
0.36280018 0.24839187 0.77160007 4287246916
0.36771047 0.24823673 0.77150005 4287841621
0.37271106 0.24807131 0.77066666 4287775559
0.37859073 0.24771598 0.77120006 4287711052
0.38285384 0.24747317 0.77149993 4287978327
0.35491496 0.25199273 0.77400005 4287900223
0.35782173 0.2528688 0.77325004 4291788436
0.36302099 0.25282753 0.77283335 4291527321
0.36803043 0.25265571 0.77200001 4289746799
0.37262648 0.25270504 0.77120006 4288427080
0.37752742 0.25219011 0.77060002 4288494153
0.38116613 0.25335687 0.77000004 4288366162
0.32587647 0.25908321 0.77100003 4286611321
0.35822499 0.25631189 0.77400005 4288557387
0.36331531 0.25618997 0.77333337 4288491595
0.36775598 0.25731948 0.77260005 4288754763
0.37293023 0.25734091 0.77300006 4288755275
0.37694833 0.25656837 0.77100009 4288757070
0.38091689 0.25809824 0.77150005 4288631133
0.32593346 0.26331788 0.77100003 4280831037
0.35640216 0.26328221 0.77366668 4286924113
0.3668679 0.26173306 0.77375001 4287970640
0.3719787 0.26170817 0.77400005 4287969094
0.37793151 0.26225835 0.773 4286731094
0.38061893 0.26071656 0.77300006 4287316810
0.32638577 0.26578093 0.77200001 4280831294
0.35734493 0.26697093 0.77400005 4290563004
0.37444943 0.26609352 0.77350008 4284245595
0.3773911 0.26744688 0.77200001 4281751623
0.32819059 0.27183118 0.77100003 4280833604
0.37771758 0.27068529 0.77100003 4281949773
0.37602857 0.27729747 0.77166671 4281492045
0.33304021 0.28076896 0.77200001 4281229649
0.37354237 0.28307265 0.77300006 4280770120
0.35951945 0.28809488 0.77300006 4286889131
0.36028939 0.28702936 0.77000004 4286823336
0.36939409 0.28547573 0.77100003 4281231184
0.37124395 -0.022686571 0.77550006 4279637769
0.37100279 -0.019521305 0.77500004 4279637769
0.31953847 0.058401439 0.77800006 4284765520
0.34728608 0.058459785 0.77866673 4284835944
0.35205835 0.058376588 0.77750003 4286085754
0.31410953 0.064475685 0.77500004 4284817697
0.35417846 0.060485952 0.77750003 4284027411
0.35755575 0.06171646 0.77700007 4284618777
0.36213529 0.062972039 0.77680004 4285013791
0.36759734 0.063599207 0.77666664 4285144605
0.37307757 0.063636571 0.77700007 4285079839
0.37666246 0.06393978 0.77633339 4285345577
0.3157303 0.066918865 0.77900004 4288910993
0.36870727 0.066957846 0.77900004 4284751129
0.37167189 0.067977265 0.77850002 4284424732
0.37939003 0.066979766 0.77900004 4285542442
0.31410784 0.07287392 0.77500004 4283649351
0.31532413 0.071048334 0.77800006 4286281071
0.35846916 0.07251101 0.77833343 4285147947
0.36197469 0.072157606 0.77825004 4284624684
0.36741781 0.0732463 0.77850008 4284365358
0.37809205 0.073270276 0.77850008 4282788123
0.31491804 0.075166956 0.77700001 4284768603
0.35907382 0.077020615 0.77840006 4281412643
0.36269796 0.077359907 0.77749997 4283383861
0.36711201 0.07740169 0.7778334 4284166178
0.37228841 0.078736387 0.77840006 4283573266
0.37719366 0.077401079 0.77757138 4282524948
0.35868692 0.08267729 0.77800006 4281473288
0.36247554 0.082578786 0.77700001 4283705112
0.36771521 0.082573302 0.77683336 4284558876
0.37348226 0.082684375 0.77775007 4283836437
0.37812555 0.08242894 0.77720004 4283575578
0.38059926 0.083680488 0.77700001 4283773985
0.3124094 0.089786403 0.77600002 4284178788
0.35892361 0.085896268 0.77850008 4281867016
0.36271742 0.086849228 0.77750003 4283771161
0.36709449 0.086888321 0.77775002 4284689947
0.37266329 0.087226242 0.77750009 4284361754
0.37776813 0.086917795 0.77775007 4283771414
0.3816978 0.087435983 0.7766 4284628010
0.35384735 0.092278212 0.77900004 4284427035
0.35764864 0.094278403 0.77800006 4280227593
0.36243987 0.091860056 0.77785724 4281278222
0.36714277 0.092356481 0.7768572 4283574810
0.37216219 0.092106283 0.77716666 4283312408
0.37765604 0.092272632 0.77842861 4282656021
0.38197726 0.092662536 0.778 4284695603
0.3538557 0.09650299 0.77900004 4280883723
0.35765508 0.09744402 0.77800006 4280295447
0.36227784 0.097269692 0.77649999 4280360980
0.36683995 0.096984968 0.77580005 4280360463
0.37272087 0.096805342 0.7753334 4280031498
0.37719846 0.097315803 0.77650005 4281213972
0.3823337 0.097551927 0.7782501 4284694577
0.35316357 0.10424788 0.77900004 4280950549
0.35879475 0.10237861 0.7786001 4281085479
0.36246938 0.10301607 0.77785718 4280558620
0.36737716 0.10248581 0.77600002 4280953372
0.37278605 0.10252824 0.77616668 4280557840
0.37754175 0.10267669 0.77716666 4281019159
0.38247964 0.10227667 0.7772001 4283452469
0.3496269 0.10811326 0.77900004 4284557340
0.35281557 0.10706423 0.77900004 4282854689
0.35870019 0.10844219 0.77866673 4282398504
0.36279494 0.10766377 0.77657145 4282262551
0.3683401 0.10726756 0.77500004 4284102181
0.37320703 0.10791082 0.77700001 4284756514
0.37784797 0.10803228 0.77775002 4281281814
0.38307977 0.10802399 0.77750003 4282929718
0.38597783 0.10929898 0.77900004 4285295694
0.35852757 0.11214873 0.77750003 4284951578
0.36333773 0.11289562 0.77525008 4285477661
0.36722669 0.11295976 0.77560008 4285281567
0.37219381 0.11238191 0.77633333 4284691487
0.37774575 0.11222085 0.77750003 4282660125
0.38144881 0.11238017 0.77850008 4281220638
0.3854987 0.11233005 0.77800006 4286547822
0.35391459 0.1197473 0.77900004 4287057206
0.35745558 0.11741221 0.77744448 4286595626
0.3627305 0.11741523 0.77733344 4286530346
0.36743185 0.11723257 0.77600002 4286794546
0.37318081 0.11721873 0.77575004 4284427800
0.3777703 0.11750221 0.77750009 4284760876
0.38282964 0.11743636 0.77688891 4285623125
0.35392791 0.12397527 0.77900004 4282789647
0.35806397 0.12295562 0.77780002 4284039457
0.36224476 0.12251738 0.77625 4284297493
0.36784777 0.12204789 0.7753334 4284361748
0.37255138 0.12244745 0.77550006 4285152809
0.37694728 0.12250742 0.77575004 4286014803
0.38221017 0.12284715 0.77775007 4287533183
0.38506249 0.12274681 0.77700001 4287533699
0.35325781 0.12742922 0.77750003 4283849778
0.35739467 0.12751962 0.77657139 4284044076
0.3628765 0.12651877 0.7762 4283388974
0.36800939 0.12724708 0.77600002 4284831541
0.37353283 0.12698789 0.77750003 4285558878
0.3769342 0.12776506 0.77566671 4287204997
0.38195091 0.12768272 0.77760005 4287400573
0.3850885 0.12697293 0.77700001 4287927172
0.35267812 0.13242874 0.77900004 4285482533
0.35730854 0.13271227 0.77699995 4286006308
0.362827 0.13233791 0.77642858 4284764976
0.36761525 0.13180292 0.77700001 4285684800
0.37258664 0.13178298 0.77642858 4287335294
0.37757358 0.13281982 0.77560008 4287334785
0.38297531 0.13266639 0.77700001 4286675822
0.38512313 0.13225718 0.77700001 4286676588
0.34865099 0.13875841 0.77900004 4285880651
0.35234389 0.1374962 0.77775002 4287056949
0.35649252 0.13746971 0.77750003 4286923303
0.36253455 0.13768387 0.77771431 4287058230
0.36729062 0.13717106 0.77550006 4287657826
0.37251082 0.1371576 0.77525008 4287662204
0.37792793 0.13737343 0.77833343 4287399809
0.3834945 0.13664651 0.77800006 4288057992
0.38590333 0.13780917 0.77850008 4287927689
0.31309968 0.14265779 0.77766675 4285760138
0.34972852 0.14193484 0.77900004 4283511584
0.35258752 0.14181134 0.77825004 4285481260
0.35773155 0.14244446 0.77724999 4286726442
0.36274305 0.14223333 0.7761429 4286004524
0.36704254 0.14247201 0.77566671 4287199081
0.37274423 0.14250426 0.77566671 4287793280
0.37765202 0.1424261 0.77740002 4286675316
0.38257238 0.14286114 0.7772857 4287596154
0.38518289 0.14071535 0.77700001 4288387208
0.31203094 0.14637223 0.77500004 4287798943
0.35401896 0.14724231 0.77900004 4287252274
0.35759571 0.14770259 0.77814287 4286528552
0.36279368 0.14753252 0.77580005 4284886303
0.36948913 0.14772815 0.77550006 4288515201
0.37305897 0.14789228 0.77625 4287596931
0.37801969 0.14755617 0.77616668 4287662209
0.38187513 0.14755546 0.77600002 4287133289
0.35381693 0.15243524 0.77850008 4285346344
0.35755396 0.15222909 0.77733344 4286462764
0.3621566 0.15194963 0.77575004 4286330916
0.36644617 0.15429059 0.77500004 4286724909
0.37269613 0.15238599 0.77766675 4287263081
0.37725699 0.15209833 0.77600002 4286871665
0.38259059 0.15208277 0.77680004 4284895295
0.38528466 0.15341246 0.77700001 4284962371
0.35407153 0.15782715 0.77900004 4287140243
0.35773644 0.15758072 0.77766669 4286608754
0.36246142 0.15734251 0.77633333 4286924601
0.36737147 0.15760984 0.77540004 4288113504
0.37282357 0.15776363 0.77657139 4287859590
0.37751442 0.15738347 0.77600002 4287394667
0.38225314 0.15768753 0.77733332 4287394916
0.38548747 0.15771639 0.77733332 4286477414
0.35409477 0.16206291 0.77900004 4287273889
0.35730857 0.1626406 0.77760005 4286155411
0.36225948 0.16301288 0.77720004 4285629325
0.36787295 0.1629658 0.77525002 4287531917
0.37252772 0.16220652 0.77566671 4287729033
0.37817326 0.16257083 0.77550006 4286934117
0.38238204 0.16301855 0.77750003 4286673256
0.38561928 0.16304959 0.77750003 4287994000
0.3145819 0.16761062 0.77600002 4287929762
0.35412586 0.16735947 0.77900004 4286287257
0.35799342 0.16750373 0.77742857 4286286742
0.36178753 0.16723713 0.77520001 4286679954
0.36762521 0.16708796 0.77514285 4287664789
0.37224784 0.1669945 0.77500004 4287928986
0.37687898 0.16740091 0.77540004 4287600535
0.38180652 0.16699022 0.77625 4287403670
0.38541269 0.16718295 0.77700001 4287930011
0.34987915 0.1726315 0.77900004 4287207581
0.35255033 0.17211799 0.77900004 4287010203
0.35790896 0.17278047 0.7778334 4287338140
0.36190212 0.17268825 0.77566671 4287467412
0.37280867 0.17199962 0.7753334 4288258208
0.37848443 0.17008105 0.77600002 4287666588
0.38233647 0.17199449 0.77628571 4287667101
0.38547856 0.17354468 0.77700001 4287864477
0.35794559 0.17772283 0.7778334 4287862427
0.36256701 0.17740214 0.77625 4288321434
0.36733642 0.1771621 0.77500004 4288520352
0.37269723 0.17721018 0.77500004 4288455587
0.37749174 0.17853934 0.77600002 4288455334
0.38215545 0.1778806 0.77600002 4288126369
0.38527691 0.1776731 0.77649999 4288323230
0.34994045 0.18217094 0.77900004 4287732899
0.35258773 0.18348663 0.77820003 4288716452
0.35745263 0.18314402 0.77725005 4288451224
0.3625671 0.18259442 0.77714288 4288253330
0.36738408 0.18244542 0.77500004 4288714395
0.37282923 0.1825356 0.77516675 4286671473
0.37731671 0.18235084 0.77600002 4288841873
0.3820838 0.18188024 0.77649999 4287526269
0.38532543 0.18191591 0.77649999 4286673268
0.31717169 0.18892887 0.77700001 4288192679
0.34967861 0.18731272 0.77833343 4288048247
0.35240856 0.18813601 0.77724999 4285021254
0.35802984 0.18832047 0.7778334 4287656057
0.36290455 0.18827917 0.77600002 4286861917
0.36798728 0.18801509 0.77616668 4287782248
0.3717404 0.18883306 0.77500004 4291144114
0.37799823 0.18753752 0.77639997 4287914605
0.38271266 0.1872419 0.77671427 4288314243
0.38538936 0.18722194 0.77649999 4287591800
0.34956065 0.19147211 0.77800006 4286261816
0.35250354 0.19296321 0.77880007 4287714143
0.3586148 0.19391319 0.77900004 4284951094
0.36213157 0.19247764 0.77733344 4287326064
0.36808684 0.19229116 0.77720004 4288704635
0.37214035 0.19272403 0.77575004 4289694612
0.37679371 0.19171177 0.77500004 4286666850
0.38290417 0.19231336 0.7766 4287594116
0.38522205 0.19347081 0.77600002 4289047469
0.3525393 0.19719303 0.77816677 4287454312
0.35788667 0.19773912 0.77733338 4288184201
0.36263505 0.19745249 0.77600002 4286868854
0.36705318 0.19701931 0.77528578 4286075997
0.37276822 0.19792323 0.77637506 4288781731
0.37768236 0.19729683 0.77640003 4288714654
0.38256127 0.19741461 0.7761429 4287862170
0.35352612 0.20228182 0.77866673 4288520103
0.3573246 0.20269601 0.77600002 4288192423
0.36245817 0.20262177 0.77550006 4287531667
0.36711136 0.20286494 0.77625 4288915114
0.37165928 0.20304526 0.77675003 4288783785
0.37727615 0.2026151 0.77657139 4288058266
0.38267767 0.20168024 0.77500004 4288847525
0.3539902 0.20742545 0.77800006 4287995560
0.35767603 0.20711434 0.77666664 4288192681
0.36286786 0.20757918 0.77580005 4288521129
0.3670558 0.20810376 0.77600002 4288585637
0.37135363 0.20709667 0.77600002 4287926679
0.37748182 0.20756741 0.77749997 4289044389
0.38271841 0.20741081 0.77579999 4287728015
0.35377517 0.2122951 0.77900004 4287732644
0.35736418 0.21233313 0.77900004 4287798181
0.36144167 0.21247409 0.77671432 4287995045
0.36701247 0.21349804 0.77500004 4287131257
0.37235638 0.21275322 0.77625 4286603113
0.37758011 0.21226399 0.77628571 4287461505
0.38319516 0.21253774 0.77700001 4287266437
0.38549876 0.21261024 0.77600002 4287859856
0.35439467 0.21717697 0.77866673 4287403419
0.35765252 0.2172558 0.77771431 4287468957
0.36193758 0.21722081 0.77540004 4287534238
0.36735475 0.2176061 0.77500004 4286347135
0.37040111 0.21664567 0.77600002 4284632662
0.3785834 0.21755379 0.77500004 4287402391
0.38232785 0.21788499 0.77600002 4287336598
0.38660771 0.21716049 0.77700001 4287336338
0.31441408 0.22216526 0.77500004 4287927442
0.35251707 0.22213626 0.77820003 4287073943
0.35668814 0.22241898 0.77600002 4286877078
0.36153194 0.22145106 0.77649999 4287073943
0.36674854 0.22057049 0.77500004 4287534235
0.38252053 0.22221972 0.77625 4286811026
0.38674489 0.22222006 0.77600008 4286942867
0.31658208 0.22851817 0.77500004 4286020214
0.348492 0.22898634 0.77800006 4286811274
0.35215753 0.22723652 0.77762496 4286745490
0.35709134 0.22664829 0.77566671 4286614417
0.37877497 0.22926326 0.77500004 4280298529
0.38224158 0.22733407 0.77550006 4284311396
0.38659227 0.22741117 0.77550006 4284706152
0.31661507 0.23274672 0.77500004 4287270535
0.34844887 0.23259738 0.77700007 4282930503
0.35252571 0.23250178 0.77649999 4283456849
0.35529757 0.23224542 0.77550006 4283326283
0.38207102 0.23145251 0.77500004 4284903271
0.38642347 0.23153223 0.77500004 4286416511
0.34839168 0.23677923 0.77674997 4280102939
0.35285252 0.23743057 0.7766 4280300319
0.35535657 0.23649804 0.77550006 4280300834
0.31924704 0.2436627 0.77600002 4291599270
0.34773493 0.24217214 0.77875006 4285616199
0.3517085 0.24260628 0.7773751 4286138435
0.3482953 0.24786271 0.77700001 4289154143
0.35213098 0.24722555 0.7766 4287507518
0.35615301 0.24675165 0.7753334 4287639359
0.34860027 0.25170159 0.77675003 4290006370
0.35252911 0.25197369 0.77540004 4288294212
0.35537386 0.2523188 0.77500004 4288162882
0.35246539 0.25607896 0.77800006 4288557128
0.35695696 0.25857821 0.7766667 4288820301
0.36212888 0.25895107 0.7753334 4288820559
0.33143914 0.26393953 0.77900004 4283395681
0.35299963 0.26344669 0.77650005 4287180093
0.35723725 0.26180756 0.77780002 4288495957
0.36302429 0.2622478 0.77620006 4288038752
0.37619296 0.2634142 0.77500004 4286003777
0.35364008 0.26647964 0.77700001 4286217337
0.35778677 0.26624605 0.77500004 4287204487
0.36355725 0.26661095 0.77575004 4288057744
0.36744219 0.26715139 0.77520001 4286413173
0.37179714 0.26724476 0.77520007 4285428843
0.37629232 0.26770955 0.77500004 4283063631
0.33156312 0.27250731 0.77900004 4281291845
0.36407924 0.2720145 0.77900004 4280633652
0.36743876 0.27206847 0.77683336 4280436785
0.3731761 0.27178243 0.7766667 4280503349
0.3776716 0.27255028 0.77649999 4281161795
0.33253831 0.27790463 0.77600002 4281031244
0.36424431 0.279567 0.77900004 4280570686
0.36767957 0.2780022 0.778 4280899906
0.37160641 0.27686352 0.77850008 4280439610
0.37702358 0.27747566 0.77833343 4280834371
0.36344206 0.28303087 0.77866673 4283136872
0.36798796 0.28236672 0.77749997 4281952852
0.3723518 0.28245109 0.77560008 4280638274
0.37600324 0.28095967 0.77600002 4281294922
0.35873476 0.28916106 0.77600002 4284257925
0.36361325 0.28702956 0.77725005 4280507718
0.36750221 0.28622705 0.77625006 4280638276
0.37002072 0.28547853 0.77700001 4280770117
0.35356882 0.29012901 0.77900004 4287940532
0.35684323 0.29020292 0.77900004 4288729793
0.32373524 0.0585889 0.78050005 4285754471
0.32838672 0.058664121 0.78150004 4286215792
0.33785251 0.058653969 0.78133339 4284243034
0.3425765 0.058556382 0.78000003 4284308315
0.318248 0.060665008 0.78000003 4284687394
0.34282956 0.060902726 0.78300005 4284748822
0.34793249 0.061928898 0.78250003 4284946200
0.35206625 0.062009148 0.78079998 4285012507
0.35768032 0.064952925 0.78050005 4285209884
0.36064568 0.064915471 0.78000003 4285342241
0.31654045 0.069206484 0.78100002 4287991946
0.35265049 0.068381421 0.78350002 4285406750
0.35693339 0.067788839 0.78185719 4285275421
0.36183137 0.068110399 0.78025001 4285210913
0.36690265 0.068361044 0.78060007 4284948508
0.37740609 0.068347298 0.7802 4284819746
0.35265523 0.072628632 0.78350008 4285210909
0.3564716 0.072540596 0.78250003 4285281074
0.36491919 0.071266316 0.78000003 4284161050
0.36859286 0.071363568 0.78100002 4282915090
0.37263554 0.072384924 0.78049999 4282326032
0.37745163 0.07186687 0.78050005 4283573788
0.31613362 0.077570282 0.78000003 4284769633
0.34327906 0.075851999 0.78400004 4283309075
0.34739897 0.076885216 0.78366667 4283704084
0.35288545 0.076924428 0.78400004 4282522638
0.35644776 0.078039594 0.78142864 4282265123
0.37264332 0.075560406 0.78050005 4282982672
0.37561345 0.075519539 0.78000003 4283180565
0.31775433 0.081154004 0.78400004 4284966499
0.34796646 0.081453688 0.78333336 4284166430
0.35245264 0.082212783 0.78125006 4284492311
0.35664225 0.082937203 0.78050005 4284031249
0.34898305 0.087899297 0.7840001 4281210885
0.35231361 0.087143093 0.78033334 4284491540
0.35774246 0.087616853 0.78133339 4283900433
0.36068618 0.088179156 0.78000003 4281143811
0.37136632 0.088205062 0.78000003 4284821276
0.3144221 0.092480741 0.78100002 4285100143
0.31522712 0.094838828 0.78300005 4284771939
0.34499139 0.093796112 0.78300005 4286003753
0.34766871 0.092417076 0.78285712 4285410329
0.35155889 0.092509352 0.78100008 4285871394
0.35760933 0.091374375 0.78025001 4282523408
0.36069554 0.092409983 0.78000003 4279899654
0.31562945 0.099207908 0.78400004 4284577366
0.34746823 0.097807691 0.78280002 4282722843
0.35238752 0.098066546 0.78140002 4281737491
0.31522691 0.103324 0.78300005 4283588723
0.34865183 0.10348565 0.78400004 4281742638
0.35239571 0.10187976 0.78140002 4280228625
0.35645276 0.10192017 0.78000003 4279966739
0.31536147 0.10761342 0.78333336 4283392882
0.34806564 0.10755286 0.78266668 4282725930
0.35235679 0.10795131 0.78033334 4284361503
0.3566184 0.10725638 0.78033334 4281870878
0.3835462 0.10691015 0.7802 4282206508
0.34722969 0.11300468 0.78220004 4284689950
0.35224059 0.11242031 0.78100002 4285410845
0.35622576 0.11299526 0.78100008 4286002722
0.38433588 0.1126079 0.78000003 4282075436
0.34333262 0.11623083 0.78400004 4286139185
0.34702808 0.11745789 0.78200006 4286071083
0.35235736 0.11764409 0.78087503 4286134563
0.31563288 0.12044939 0.78400004 4284576128
0.34335065 0.1247357 0.78400004 4285146638
0.34652376 0.12259039 0.78212506 4285541910
0.35208911 0.12295096 0.78060001 4284821012
0.35650989 0.12202448 0.78000003 4285809192
0.34193364 0.12827665 0.7840001 4286393881
0.34674931 0.1276103 0.78200006 4286131732
0.3508358 0.12694559 0.78000003 4285486386
0.31563988 0.13319656 0.78400004 4285036413
0.34336895 0.13217916 0.78400004 4286723102
0.3468771 0.13223636 0.78157145 4286723870
0.35132247 0.13263458 0.78025001 4286203174
0.31484002 0.13921514 0.78200006 4285036420
0.34366155 0.13874026 0.78299999 4284576372
0.34642091 0.13680312 0.78200006 4285878339
0.35060662 0.13699822 0.78100002 4288771421
0.38257945 0.13866436 0.78049999 4287991945
0.34402624 0.14157459 0.78300005 4282538860
0.34669086 0.14246151 0.78080004 4283453009
0.34755296 0.14752588 0.78228575 4284891193
0.35204673 0.14755456 0.78071433 4286988076
0.34727752 0.15256926 0.78300005 4287334533
0.35196579 0.15300807 0.78150004 4285942597
0.3467057 0.1572635 0.78166676 4287074447
0.35187393 0.15720387 0.78125006 4287140498
0.3178106 0.1629577 0.78400004 4287403932
0.34414768 0.16317923 0.78260005 4287273117
0.34706178 0.16223197 0.78000003 4287075738
0.35199222 0.16264787 0.78042859 4286681239
0.31660381 0.16657157 0.78100002 4287338139
0.34349421 0.16729942 0.78400004 4286353307
0.34690532 0.16795635 0.78200006 4286418841
0.35136777 0.16755559 0.78000003 4286287000
0.34735695 0.17242341 0.78200001 4286879133
0.35461378 0.17287961 0.78000003 4287339167
0.35783184 0.172901 0.78000003 4287272862
0.3477599 0.17732219 0.78242862 4287010461
0.3530018 0.17781761 0.78042859 4287798690
0.31999782 0.18211301 0.78400004 4287863199
0.32000518 0.18424207 0.78400004 4287863199
0.34421855 0.18412372 0.78300005 4286222494
0.34795353 0.18279251 0.78175008 4287075999
0.35467225 0.18137284 0.78000003 4288389286
0.31899637 0.18683648 0.78150004 4287929249
0.34316784 0.18784589 0.78299999 4286546576
0.34771371 0.18703428 0.78260005 4286606713
0.34415674 0.19152173 0.78275001 4287861660
0.34748152 0.19262816 0.78157145 4287455853
0.35778046 0.19281341 0.78033334 4288642952
0.34368294 0.19929256 0.78400004 4288191654
0.34897295 0.1976593 0.78299999 4287917431
0.35095996 0.19859655 0.78100002 4289632930
0.32221776 0.20129578 0.78400004 4288455851
0.34413388 0.20268531 0.78333336 4287996073
0.34809178 0.20211312 0.78320009 4288913576
0.35177064 0.20323777 0.78079998 4288321953
0.34755179 0.20714633 0.78225005 4288389803
0.35200915 0.20812717 0.78074998 4288127146
0.34792194 0.21306066 0.78260005 4287863715
0.35180011 0.21210004 0.78099996 4287929766
0.35924551 0.21119976 0.78000003 4288061609
0.3185232 0.21511419 0.78000003 4288322716
0.34467748 0.21771812 0.78100002 4287600027
0.34754142 0.21703438 0.78100008 4287731870
0.35184312 0.21756102 0.78016669 4287600284
0.34749317 0.2228398 0.78299999 4287139219
0.35076037 0.22390097 0.78000003 4286942614
0.31860867 0.22786547 0.78000003 4282598978
0.34271729 0.22785684 0.78220004 4286414978
0.34681278 0.22673768 0.78075004 4286876303
0.33966967 0.23348561 0.78400004 4285493871
0.34266564 0.2315702 0.78100008 4284376157
0.34654737 0.23238909 0.78000003 4284311388
0.32165661 0.23913659 0.78200006 4288386200
0.33869097 0.23613568 0.78333336 4285625457
0.34230486 0.23735751 0.78250003 4285560433
0.34584004 0.23743644 0.78120005 4279903769
0.3214798 0.24218529 0.78150004 4289766571
0.33976382 0.24206571 0.78400004 4283519829
0.34337333 0.24267435 0.78233337 4285359974
0.34668002 0.2430733 0.78000003 4286065205
0.34349501 0.24647975 0.78250003 4287462019
0.34614474 0.24795994 0.78060001 4288169818
0.32527345 0.25350037 0.78000003 4288693588
0.34399876 0.25162822 0.78350008 4289033094
0.34606412 0.25293446 0.78075004 4288033095
0.3283132 0.25846162 0.78200006 4287712338
0.34427792 0.25609398 0.78400004 4287768383
0.3480188 0.25731379 0.78160006 4288491077
0.35231137 0.25815123 0.78000003 4288753735
0.33353707 0.26348034 0.78400004 4286542959
0.34654731 0.26259056 0.78400004 4287901248
0.35192874 0.26229349 0.78142864 4288361800
0.33276096 0.26818091 0.78200006 4280767296
0.34748399 0.26675427 0.78350008 4287070592
0.35138988 0.26714435 0.78125 4287069821
0.33365893 0.2720992 0.78400004 4280833858
0.34888586 0.27234307 0.78400004 4280306999
0.35321224 0.27025741 0.78400004 4280826417
0.35853195 0.27451408 0.78350008 4280372022
0.36207968 0.2729063 0.78175008 4280304688
0.33464566 0.27754238 0.78100002 4281424460
0.3576248 0.27771905 0.78280002 4281097028
0.36247557 0.276766 0.78100002 4280241974
0.36599171 0.2779659 0.78050005 4280374074
0.37343264 0.27796376 0.78000003 4280637246
0.37560406 0.27693355 0.78000003 4280373817
0.33820483 0.28316396 0.78150004 4280966734
0.35794854 0.28215531 0.78266668 4281492558
0.36152828 0.28179464 0.78059995 4281755219
0.37568423 0.28018355 0.78000003 4280571966
0.34263143 0.28756219 0.78150004 4280639052
0.34790069 0.28947034 0.78350008 4280770637
0.35227549 0.28956079 0.78350008 4281165392
0.35801461 0.28817686 0.78333336 4280244547
0.36169121 0.28742558 0.78100008 4280572998
0.39951828 -0.0091409823 0.78500003 4279901195
0.33304942 0.058927305 0.78500003 4285690221
0.33517891 0.058927789 0.78500003 4284374875
0.32110372 0.063341528 0.78700006 4285670951
0.32877237 0.061247893 0.78750002 4285013019
0.33260724 0.061364856 0.78900003 4284881176
0.33888006 0.061923746 0.787 4284750363
0.34215418 0.063291535 0.78633338 4285340444
0.34584218 0.063186698 0.78500003 4285274137
0.34230039 0.067581899 0.78666663 4285213998
0.34728062 0.067514986 0.78583336 4285209885
0.35065138 0.066913344 0.78500003 4285275164
0.32151023 0.074096009 0.78800005 4282862404
0.33881885 0.073078811 0.78850007 4283914579
0.3420144 0.072848551 0.78600001 4284427051
0.34746957 0.072875962 0.78625005 4284948251
0.3501226 0.072763473 0.78500003 4285014042
0.32191804 0.076327555 0.78900003 4284310878
0.33860633 0.077302232 0.78800005 4282533953
0.34211156 0.077440396 0.78720009 4282854178
0.31815928 0.084447518 0.78500003 4282597695
0.3392514 0.083199546 0.78825003 4283321923
0.3423427 0.082179397 0.78612506 4283705628
0.34686708 0.083824068 0.7856667 4282521864
0.31896958 0.087863512 0.78700006 4286019957
0.33861345 0.087978907 0.78800005 4284835937
0.34217203 0.087796599 0.78633338 4284099617
0.34716579 0.087446451 0.78633338 4281997063
0.33754557 0.092248335 0.78800011 4286086518
0.3421751 0.092059396 0.78633338 4285548090
0.31603211 0.097207747 0.78500003 4284839510
0.33790657 0.096165381 0.78800005 4282597432
0.34295645 0.097265407 0.78750002 4281543198
0.34588015 0.09935569 0.78500003 4279901202
0.31603205 0.10146119 0.78500003 4284115318
0.34355 0.10280441 0.78700006 4280887070
0.34659758 0.10219441 0.78500003 4281018658
0.3501628 0.10149109 0.78500003 4280162578
0.33799052 0.1084041 0.78900003 4285806887
0.34283599 0.10766765 0.78616667 4281213461
0.34604105 0.1079146 0.7853334 4281411869
0.31663716 0.11337551 0.78650004 4283589748
0.33820891 0.11215995 0.78783339 4285541137
0.34224513 0.11262721 0.78642863 4285016341
0.34590203 0.11212587 0.78500003 4284360472
0.31623569 0.1174866 0.78550005 4283590775
0.33821765 0.1176235 0.78866673 4283392582
0.34190059 0.11789091 0.78660005 4284233754
0.31643894 0.12288644 0.78600001 4284839300
0.33916578 0.12251574 0.78620005 4284034075
0.342673 0.1223992 0.78540003 4284229905
0.31630686 0.12709139 0.7856667 4284445050
0.33791083 0.12757905 0.78687507 4284038454
0.34379357 0.12702404 0.78500003 4285934612
0.31604099 0.13123904 0.78500003 4284378996
0.33910325 0.13308279 0.78733343 4280493594
0.34123945 0.13209726 0.7856667 4285020711
0.31604499 0.13655774 0.78500003 4285102463
0.33911312 0.13735403 0.78733343 4287074700
0.34193721 0.1369193 0.78560001 4286743931
0.33869767 0.14245714 0.78800005 4285366926
0.34184822 0.1429985 0.787 4284642947
0.33914191 0.14798984 0.78900003 4283526274
0.34308484 0.14784636 0.78816676 4284117376
0.34600049 0.14833242 0.78500003 4285628035
0.3374342 0.15197952 0.78750002 4284381582
0.34246412 0.15216443 0.78599995 4286615446
0.34602487 0.1547271 0.78500003 4286613380
0.31901827 0.15931198 0.78700006 4288060831
0.33917189 0.15762635 0.78900003 4285564566
0.34228751 0.15748225 0.78687507 4287470238
0.31861702 0.1612414 0.78600001 4287666590
0.3385458 0.16267249 0.78750002 4284907151
0.34176487 0.16216341 0.78600007 4287142048
0.31822059 0.16529505 0.78500003 4287469725
0.33899206 0.16716036 0.78850007 4284052361
0.3417879 0.16767921 0.78583336 4285499286
0.33865595 0.17233354 0.78766674 4284578962
0.34218264 0.17272229 0.7865715 4285367959
0.34610301 0.17179045 0.78500003 4286090133
0.33796009 0.17732461 0.78766674 4285104790
0.34233722 0.17736727 0.78616667 4286419360
0.34613773 0.17819396 0.78500003 4286681499
0.32162336 0.18090253 0.78800005 4287666074
0.33926868 0.18120186 0.78900003 4285170324
0.34266207 0.18225947 0.78685725 4286419617
0.34615636 0.18139687 0.78500003 4286681500
0.34124345 0.18723652 0.78725004 4286024860
0.34181398 0.19259503 0.78725004 4287602086
0.32343015 0.19778274 0.787 4288061352
0.34262893 0.19717595 0.78657144 4288324523
0.3469924 0.19885521 0.78500003 4284955205
0.32305065 0.20394704 0.78600001 4288586922
0.34173122 0.20270665 0.78740001 4287667624
0.32306778 0.20715445 0.78600001 4288652457
0.33943802 0.20911504 0.78900003 4288718508
0.34254402 0.20738025 0.78720009 4288587181
0.34506413 0.20863466 0.78700006 4288192679
0.32350302 0.21170408 0.78700006 4288717989
0.34278181 0.21183079 0.78833342 4288324521
0.3459518 0.21172865 0.78650004 4288126886
0.3209866 0.21890922 0.78600001 4287862165
0.34318843 0.21747066 0.78666669 4287337628
0.34511864 0.21507451 0.78700006 4287864228
0.32223254 0.22296844 0.78900003 4288059286
0.33955976 0.22417687 0.78900003 4287007887
0.34293562 0.22301038 0.78780001 4287468440
0.34517768 0.22151928 0.78700006 4287468441
0.32103646 0.22640288 0.78600001 4286085237
0.33873835 0.22790448 0.787 4286611842
0.3415007 0.22661698 0.78540003 4287138445
0.32391605 0.23226805 0.78766674 4285757043
0.33489341 0.23461245 0.78800005 4285296238
0.33749104 0.23312199 0.78650004 4283848535
0.34008083 0.23163742 0.78500003 4283322448
0.32286292 0.23683891 0.78500003 4286282103
0.33310539 0.23798111 0.78780001 4285690995
0.33667806 0.23742495 0.78533334 4285164906
0.32672259 0.24345215 0.78900003 4287532433
0.33495736 0.24107407 0.78800005 4284243550
0.33776149 0.24234228 0.78640002 4286085755
0.34019747 0.24237484 0.78500003 4287927703
0.32662615 0.24766029 0.78866673 4289365648
0.33777204 0.24675083 0.78766674 4286941325
0.3412776 0.2483288 0.7856667 4288191138
0.32707536 0.25253296 0.78700006 4288170841
0.33897954 0.25178656 0.78900003 4290483878
0.34205058 0.2525495 0.78650004 4289623949
0.32954678 0.25730115 0.78500003 4288234060
0.33078083 0.25612506 0.78800005 4288232007
0.33970922 0.25747606 0.78850007 4290537341
0.34200037 0.25678435 0.78625011 4288628575
0.34607124 0.2598367 0.78550005 4288426313
0.33261111 0.26229987 0.78700006 4284042313
0.33996788 0.2608867 0.78900003 4288163908
0.34349075 0.26244715 0.78700006 4288502122
0.34916842 0.26295942 0.78500003 4288426822
0.33746305 0.2681008 0.78800005 4283066201
0.34296304 0.26826805 0.78760004 4283785048
0.34765074 0.26806229 0.78633338 4286676859
0.33786634 0.27281213 0.78750002 4280767037
0.3425948 0.27293497 0.78860009 4280043825
0.34742948 0.272163 0.7856667 4280437560
0.35253105 0.27225089 0.7856667 4280304691
0.35789496 0.27352393 0.78700006 4279846195
0.36073151 0.27323905 0.78600001 4279845681
0.3363249 0.27680102 0.78500003 4281030983
0.34810099 0.27732787 0.787 4282018134
0.35336256 0.27761182 0.78650004 4283201894
0.35617912 0.27623588 0.78550005 4280175158
0.33900458 0.28152227 0.78600001 4281360209
0.34250119 0.28271705 0.78800005 4281097293
0.34780711 0.28220999 0.78675008 4283465327
0.35313165 0.28277799 0.78575009 4280373566
0.35655811 0.28402111 0.78600001 4280440127
0.34345025 0.28593931 0.78600001 4280769612
0.34740561 0.28688306 0.78600007 4282808680
0.35240847 0.28720313 0.78540003 4281361744
0.35640001 0.28710347 0.78550005 4280112703
0.32446682 0.061442465 0.79000002 4284489501
0.32774192 0.063268185 0.79275006 4285276191
0.33258924 0.063703559 0.79150003 4285406751
0.33677408 0.062613413 0.79124999 4284946715
0.32314324 0.066963762 0.79200006 4286339158
0.33321917 0.06597276 0.79300004 4284946714
0.33838108 0.067005858 0.79250002 4285020987
0.32314265 0.071252316 0.79200006 4286217848
0.32697892 0.07461302 0.79350007 4282402881
0.3334302 0.07461378 0.79350007 4283192396
0.33719152 0.071943507 0.79114288 4285099882
0.3231419 0.078763425 0.79200006 4284376671
0.32798457 0.076746732 0.79333335 4284113498
0.33322132 0.076715305 0.79300004 4283455568
0.33656642 0.077570736 0.79075003 4282995018
0.32395762 0.083264478 0.79400003 4286479737
0.33429855 0.082087107 0.79300004 4283718740
0.33680451 0.082503125 0.79079998 4283257675
0.32375354 0.08643733 0.79350007 4284111959
0.33369192 0.08752571 0.79360008 4283587154
0.33654809 0.087690026 0.79120004 4284310107
0.32140118 0.092828743 0.79300004 4287666323
0.3328326 0.093115248 0.79359996 4286415995
0.3358202 0.092655703 0.79150003 4286086776
0.3331109 0.096712112 0.79400003 4284508247
0.33632764 0.09724272 0.79100007 4280163605
0.34163186 0.099980004 0.79000002 4280229139
0.33473125 0.10263 0.79399997 4285295678
0.33814383 0.10235999 0.79188895 4282072869
0.34206814 0.10332262 0.79100001 4281149726
0.33410323 0.10780473 0.79250002 4285542935
0.33702034 0.1070011 0.79050004 4284755995
0.34163982 0.10640413 0.79000002 4281215519
0.33410722 0.11210045 0.79250002 4284376124
0.33634213 0.11296322 0.79100007 4283838734
0.33346158 0.11797371 0.79300004 4282604895
0.33638123 0.11786166 0.79150003 4283195993
0.33304083 0.12284105 0.79250002 4282013296
0.33650088 0.12253624 0.79050004 4283390831
0.33370376 0.12697743 0.79150003 4282078832
0.33564478 0.12690115 0.79100001 4281880938
0.33298436 0.13248152 0.79233342 4284051326
0.3365151 0.13269366 0.79100001 4283194206
0.33348238 0.13697872 0.79350007 4284117376
0.33673993 0.13762788 0.79100007 4286089613
0.3210192 0.14314444 0.79200006 4284971400
0.33717501 0.1420982 0.79200006 4284775564
0.32075435 0.14731543 0.79133338 4286286739
0.3345871 0.1488179 0.79350007 4282474106
0.33697486 0.14737594 0.79150003 4283065984
0.32062685 0.15261403 0.79100001 4288192927
0.33480567 0.15214199 0.79400003 4282540414
0.33591154 0.15274297 0.79150003 4282803841
0.32022858 0.15670556 0.79000002 4288455586
0.33352983 0.15850237 0.79350007 4282474620
0.33736876 0.15759338 0.79066664 4283855241
0.33329517 0.1621543 0.7924 4282672001
0.33642215 0.16265593 0.7906 4283197827
0.33714378 0.16783746 0.79175001 4283264134
0.33487159 0.17369322 0.79400003 4284381584
0.33722979 0.17270598 0.79140007 4284184719
0.32337871 0.17759353 0.79233336 4287666588
0.3344622 0.17670512 0.79300004 4284644242
0.33621967 0.17782614 0.79075003 4284775828
0.32624465 0.1844434 0.79400003 4287535263
0.33491534 0.18447793 0.79400003 4285434011
0.33762199 0.18298487 0.79119998 4285038742
0.32625663 0.18767834 0.79400003 4287535005
0.33772683 0.18690452 0.79140007 4285565083
0.34016201 0.18811332 0.79100001 4285893531
0.32559332 0.19266336 0.79233336 4287995300
0.33495086 0.19203174 0.79400003 4285761947
0.33752376 0.19277617 0.79128569 4286221981
0.34017998 0.19134058 0.79100001 4286682019
0.33454549 0.19502437 0.79300004 4285695899
0.33769971 0.19761756 0.79120004 4286682018
0.3402251 0.19887407 0.79100001 4287010464
0.32849252 0.20279467 0.79400003 4287732647
0.33820477 0.20223708 0.79300004 4286813091
0.34046111 0.20223272 0.79150003 4287338918
0.3388685 0.20760861 0.79149997 4288455853
0.34026778 0.20533533 0.79100001 4288324781
0.33878231 0.21218604 0.79250002 4287798178
0.34120092 0.21383002 0.79050004 4287666849
0.32558435 0.21736005 0.79200006 4288520097
0.33946654 0.2179985 0.79400003 4287206044
0.34093383 0.21674716 0.79066664 4287272093
0.32643437 0.22223267 0.79400003 4287994010
0.33829379 0.22320533 0.792 4287074196
0.34125406 0.22029805 0.79050004 4287074455
0.32484263 0.22864869 0.79000002 4283256394
0.32683849 0.22714752 0.79225004 4286282617
0.33263123 0.22743589 0.79311115 4287006599
0.3369731 0.22781122 0.79050004 4286612099
0.32786191 0.23248437 0.79200006 4285624945
0.33241838 0.23266649 0.79250002 4284243037
0.33657578 0.23171563 0.79033333 4284506465
0.32793722 0.23805693 0.79075003 4285624688
0.33147448 0.23638621 0.79120004 4285295724
0.32711679 0.24160227 0.79000002 4287927446
0.3321695 0.24323578 0.79166669 4285625205
0.33583003 0.24384664 0.79000002 4287796374
0.33277264 0.24798149 0.79300004 4288321950
0.33586502 0.24708918 0.79000002 4286612617
0.329813 0.25274381 0.79100001 4288101966
0.33276656 0.25236809 0.79200006 4288042082
0.3367967 0.25328451 0.79075003 4288633451
0.33450294 0.25734174 0.79166669 4288229953
0.33782777 0.25849521 0.79175001 4288492099
0.33427408 0.26146305 0.79100001 4287970888
0.33735067 0.26242357 0.79050004 4287246651
0.3404285 0.26338664 0.79000002 4287575107
0.33827361 0.26552644 0.79000002 4285355349
0.34167606 0.266743 0.79025 4286412919
0.34195271 0.2777043 0.79050004 4280439356
0.34524301 0.27775896 0.79050004 4282479197
0.3433201 0.28116849 0.79100001 4280636741
0.34551734 0.28120604 0.79100001 4285768340
0.37764886 -0.024424488 0.79800004 4279834632
0.32852337 0.067405641 0.79725009 4285944400
0.33196166 0.067659773 0.796 4286341471
0.3351377 0.068293221 0.79500002 4286873981
0.32821453 0.071656264 0.79650003 4285494640
0.33193928 0.07222341 0.79560006 4284968296
0.33513844 0.071524128 0.79500002 4285429103
0.32780319 0.079111449 0.79550004 4284113242
0.33190626 0.079062238 0.79500002 4284179291
0.3351405 0.079063065 0.79500002 4283981912
0.32436574 0.081215546 0.79500002 4282929225
0.3286275 0.082551286 0.79750001 4284441950
0.33221978 0.082371823 0.79575002 4284113498
0.32842121 0.086818792 0.79700005 4283652690
0.33147341 0.087705567 0.79525 4284508256
0.32769322 0.092006259 0.79785717 4286021495
0.33083156 0.091985852 0.79500002 4284705635
0.3224144 0.097431064 0.79550004 4284511561
0.32950357 0.096535504 0.79700005 4285035870
0.33212084 0.098510593 0.79550004 4283984946
0.32248235 0.10283908 0.79566669 4284051046
0.33253938 0.10187186 0.79650003 4284242989
0.32241559 0.10820732 0.79550004 4282999413
0.33296707 0.10733476 0.79700005 4283974707
0.32261929 0.11258808 0.79600006 4284577672
0.33254668 0.1126634 0.79650009 4283065436
0.32262114 0.11797923 0.79600006 4283986047
0.32796496 0.11618918 0.79850006 4283921280
0.33167613 0.11705454 0.79700005 4283591798
0.32262361 0.12337381 0.796 4284774534
0.32600561 0.12059087 0.79900002 4284775819
0.33124408 0.12195198 0.79725003 4283328636
0.32303146 0.12784699 0.79700005 4284906119
0.33266532 0.12781569 0.79675007 4282341487
0.32283181 0.13208459 0.79650009 4285431944
0.32673723 0.13214004 0.79900002 4286287512
0.3307125 0.13221557 0.79725003 4284446082
0.32263383 0.1373945 0.79600006 4285826187
