# .PCD v0.7 - Point Cloud Data file format
VERSION 0.7
FIELDS x y z rgba
SIZE 4 4 4 4
TYPE F F F U
COUNT 1 1 1 1
WIDTH 1090
HEIGHT 1
VIEWPOINT 0 0 0 1 0 0 0
POINTS 1090
DATA ascii
0.37697291 0.087137915 0.76100004 4289048487
0.30470914 0.092295505 0.76200002 4285823616
0.3051087 0.094483651 0.76300001 4286153351
0.30515525 0.16272371 0.76300001 4286351242
0.30609414 0.18684413 0.76000005 4286877586
0.30652133 0.19329306 0.76100004 4287534741
0.3065393 0.19743006 0.76100004 4287074188
0.30419597 0.22197956 0.76000005 4286020468
0.37827688 0.22209412 0.76100004 4290034867
0.37936774 0.22792713 0.76300001 4288258457
0.30799913 0.23775098 0.76400006 4290881449
0.36642897 0.26913124 0.76100004 4287868314
0.36765561 -0.025590735 0.76800001 4279703562
0.36693323 -0.018270327 0.7665 4279835149
0.39936119 -0.0089466292 0.76800001 4280755997
0.3462559 0.053429935 0.76700002 4287535265
0.32209119 0.055642296 0.76900005 4287203984
0.33301446 0.055380031 0.76533341 4287402909
0.33910748 0.0553592 0.76500005 4286679440
0.35640833 0.057548583 0.7663334 4285954689
0.36358893 0.057533957 0.76600003 4285294701
0.37320682 0.059820831 0.76850003 4284032808
0.31086755 0.061732225 0.76700002 4285803571
0.37515438 0.061710719 0.76600003 4286871410
0.31086543 0.072121672 0.76700002 4284639330
0.37728205 0.070029132 0.76600003 4289113767
0.37754959 0.077356026 0.7665 4285626738
0.30798191 0.08229629 0.76500005 4285626738
0.37805551 0.081623279 0.76750004 4284639843
0.37946182 0.090829007 0.76600003 4288654242
0.3069078 0.098161802 0.76750004 4286416261
0.3069455 0.15847738 0.76750004 4286022791
0.38136435 0.15707278 0.76900005 4286153853
0.3063511 0.16128585 0.76600003 4286022791
0.38140351 0.16126639 0.76900005 4285890938
0.38147646 0.16860919 0.76900005 4286944914
0.38026941 0.17119882 0.7665 4289247153
0.37913603 0.1935505 0.76800001 4289838261
0.30938888 0.20551142 0.76800001 4286679430
0.37792662 0.2116629 0.76500005 4290495673
0.3799023 0.23996501 0.76800001 4287535245
0.37922579 0.24266806 0.7665 4289179560
0.37644216 0.24743359 0.76500005 4287255121
0.3748697 0.25194645 0.76600003 4289232508
0.37382782 0.25893223 0.76800001 4285097053
0.31874552 0.26466206 0.76900005 4281883462
0.3703101 0.26211008 0.76500005 4290759357
0.36900139 0.2678844 0.7665 4282474573
0.37013081 0.2655625 0.76900005 4283328082
0.3209562 0.27103129 0.76900005 4282081613
0.36472872 0.27930671 0.76600003 4282806366
0.36357084 0.28211814 0.76800001 4281229644
0.3705259 -0.022643369 0.77400005 4279900427
0.38814107 -0.011067642 0.77100003 4281743923
0.31416824 0.057801213 0.77000004 4283638314
0.31875139 0.055787031 0.77100003 4285953403
0.32125592 0.055859312 0.77200001 4287138191
0.34431085 0.055867162 0.77200001 4287929507
0.35257185 0.057245214 0.77166671 4287138962
0.35763398 0.060180932 0.77350008 4285346877
0.36291838 0.060188062 0.77350008 4286662219
0.36738962 0.060233537 0.77400005 4286070339
0.3718853 0.061438747 0.77320004 4285278252
0.37703186 0.063236237 0.77200007 4285216821
0.37884003 0.067561843 0.77350008 4286215021
0.31039709 0.085030459 0.77100003 4284903015
0.37979022 0.085134141 0.77100003 4285363566
0.38054034 0.0884462 0.77250004 4285100910
0.3816191 0.092642516 0.77250004 4286944137
0.38196501 0.097701825 0.77100009 4285892970
0.30910689 0.10200444 0.77300006 4286547844
0.38223636 0.10300694 0.77149999 4284181618
0.30950665 0.1063302 0.77400005 4287271309
0.38250428 0.10726799 0.77200001 4283591025
0.38286161 0.11261002 0.77266669 4284315003
0.3823123 0.1176834 0.77149999 4285235846
0.35801515 0.1232017 0.77400005 4286937980
0.36013749 0.12320983 0.77400005 4286939268
0.38283241 0.12203659 0.77250004 4285169539
0.37292919 0.12852535 0.77400005 4282278010
0.38294759 0.12731476 0.77266669 4285366916
0.36442474 0.13163708 0.77400005 4283195243
0.37294665 0.13168123 0.77400005 4282671737
0.38240403 0.13237113 0.77149999 4286419340
0.38301942 0.13782655 0.77266669 4286090375
0.36732459 0.14287211 0.77399999 4283592573
0.38297611 0.14305589 0.77250004 4284709241
0.38325733 0.14735803 0.77300006 4284905848
0.38264024 0.15235685 0.77166671 4285891197
0.3083401 0.15606593 0.77100003 4286615183
0.38242602 0.16484021 0.77100003 4286418055
0.38244706 0.16694373 0.77100003 4286286984
0.38184908 0.17390862 0.77400005 4285958535
0.38090789 0.17767327 0.77200007 4286813328
0.3807207 0.18282957 0.77149999 4286812817
0.31172508 0.18818359 0.77400005 4286680207
0.38126436 0.18728958 0.77250004 4286878354
0.38032952 0.19101764 0.77050006 4287207318
0.37949097 0.19795635 0.77300006 4286483596
0.38002434 0.20139089 0.77400005 4286944400
0.38011351 0.2077523 0.77400005 4287732885
0.38251272 0.22265697 0.77400005 4287074184
0.38161689 0.22738755 0.77200007 4285100648
0.37836131 0.23322627 0.77400005 4279970070
0.38064134 0.23214006 0.77160007 4285101160
0.35900265 0.2382286 0.77400005 4280235293
0.36121258 0.23689887 0.77300006 4280432671
0.36545315 0.23726563 0.77400005 4280564003
0.38070947 0.23693347 0.77200007 4284049498
0.31338006 0.24447723 0.77200001 4288104788
0.3612074 0.24145217 0.77400005 4286677596
0.37854174 0.24282217 0.77400005 4285150253
0.38046992 0.24270695 0.77350008 4288517260
0.37872475 0.24723902 0.77240002 4289035129
0.37648824 0.25257632 0.77233338 4288102468
0.37475374 0.25747529 0.77000004 4289293165
0.3756803 0.25600845 0.77200001 4289946984
0.37282878 0.2635864 0.77250004 4285231205
0.37003011 0.27332386 0.77300006 4282148687
0.36869702 0.27653846 0.77000004 4281885262
0.37008134 0.27546921 0.77300006 4283199836
0.36117241 0.28562814 0.77200001 4282941035
0.36771199 -0.025887841 0.77700001 4279899913
0.33430138 0.058402933 0.77800006 4287664535
0.33747011 0.058404148 0.77800006 4288388773
0.34260905 0.058381859 0.77766675 4287796636
0.34865427 0.057286132 0.77700007 4286678924
0.35228407 0.058414131 0.778 4284375399
0.31410953 0.064475685 0.77500004 4283835946
0.35784137 0.062559523 0.77700001 4285276971
0.36279178 0.063678876 0.77775007 4285473062
0.36761147 0.063464098 0.77760005 4285604390
0.37217429 0.064714581 0.77733344 4285406751
0.37758636 0.064739302 0.77750003 4285344040
0.31410864 0.06867481 0.77500004 4285230699
0.31532499 0.066832967 0.77800006 4287402128
0.36246139 0.06774012 0.77840006 4285538339
0.36705279 0.067902014 0.77775002 4285210143
0.37166905 0.066920906 0.77850008 4285341472
0.36784807 0.07185524 0.77866673 4285211685
0.37298959 0.073304579 0.77900004 4284883237
0.3795827 0.070846282 0.77500004 4284771429
0.38007811 0.073043279 0.77600002 4285099880
0.31410712 0.077073038 0.77500004 4284574050
0.31572798 0.079581231 0.77900004 4284047706
0.36233336 0.077508196 0.77900004 4284688176
0.36873335 0.079633802 0.77900004 4284098868
0.37205032 0.077931464 0.77880007 4284294446
0.3772763 0.077277504 0.77900004 4284032040
0.3804166 0.077322043 0.77666664 4284178009
0.36329231 0.082765117 0.77875006 4283971141
0.36767381 0.082800813 0.77900004 4283905092
0.37087348 0.081751913 0.77900004 4284166204
0.37943259 0.082832158 0.77900004 4283578686
0.38084084 0.08267992 0.77750003 4285032807
0.31321487 0.087910131 0.77800006 4284771429
0.36196342 0.086921155 0.77816671 4282857549
0.36690646 0.087524675 0.77780002 4282858578
0.37201136 0.087455079 0.77800006 4283122002
0.3770152 0.087256067 0.77766675 4283977819
0.38085473 0.086899228 0.77750003 4284440417
0.35865596 0.090841345 0.77866673 4281611087
0.36256459 0.092258893 0.77866673 4281283664
0.36725169 0.09256652 0.77760005 4281678677
0.37279695 0.091210827 0.77850008 4282072660
0.37755021 0.092576198 0.77800006 4282008923
0.38128811 0.092677645 0.77724999 4285694589
0.35173315 0.098611139 0.77900004 4285297787
0.36206755 0.097495459 0.77833337 4281483356
0.36771017 0.096537367 0.77900004 4281219671
0.37306106 0.098668151 0.77900004 4280366676
0.37734422 0.09868335 0.77900004 4281485151
0.38352889 0.097588569 0.77850008 4283723593
0.30990651 0.10436796 0.77500004 4287139723
0.35386479 0.1007282 0.77900004 4285825414
0.35706028 0.10301816 0.778 4284773502
0.36219236 0.10246649 0.778 4281550691
0.36714047 0.10319395 0.77820003 4280564829
0.3729001 0.10216258 0.778 4280696670
0.37762246 0.10269463 0.77733344 4281749352
0.38247314 0.10181268 0.77850002 4283592026
0.31030643 0.10870732 0.77600002 4287271310
0.35317206 0.10776944 0.77900004 4283063136
0.35752961 0.10795053 0.77766675 4283523687
0.36265856 0.1079086 0.77725005 4284050551
0.36692256 0.10792209 0.77725005 4282802551
0.37257791 0.1077844 0.77866673 4281355626
0.37784728 0.10803363 0.77775002 4281159274
0.3827334 0.10505115 0.77900004 4282275432
0.31090653 0.11207646 0.77750003 4287008652
0.35389051 0.11129307 0.77900004 4283721067
0.35602051 0.11129887 0.77900004 4282668378
0.36211061 0.11227962 0.77833343 4285168512
0.36681879 0.1121054 0.77700001 4285037962
0.37180367 0.11233903 0.77850002 4282670966
0.37525123 0.11136596 0.77900004 4281290347
0.31110731 0.11742076 0.77800006 4286812046
0.35391459 0.1197473 0.77900004 4283843668
0.35750696 0.11742689 0.77755558 4282996580
0.36288598 0.1174624 0.77766675 4284182134
0.3670752 0.11745399 0.77749997 4284380545
0.37250209 0.11855782 0.77766675 4281882480
0.37780079 0.11799844 0.778 4281291117
0.38266978 0.11901099 0.77800006 4283000181
0.35392454 0.12291824 0.77900004 4287133821
0.35684222 0.12240456 0.77700007 4286607222
0.36284009 0.12183908 0.77525008 4284702825
0.36674604 0.12284923 0.77600002 4282604653
0.37220296 0.12267856 0.77700001 4281422444
0.37743181 0.12266533 0.77675003 4281488237
0.38184196 0.12272834 0.77700001 4283197304
0.35181069 0.12819675 0.77900004 4285882980
0.35774335 0.12699926 0.77800006 4285818983
0.36293772 0.1277768 0.77616668 4285425261
0.36761305 0.12751578 0.77628571 4282406248
0.37165087 0.12733716 0.77580005 4281751666
0.37717253 0.12749556 0.7766 4281948786
0.38223422 0.12707634 0.77775002 4283394939
0.34904948 0.13237415 0.77875006 4287268482
0.35267967 0.13285168 0.77900004 4287070848
0.35769176 0.1333074 0.7778334 4286808446
0.36176744 0.13207054 0.7766667 4286084471
0.36764917 0.13315201 0.77540004 4282802800
0.37217331 0.13330573 0.7753334 4283000444
0.37811711 0.13273659 0.77760005 4282079857
0.38260227 0.13198468 0.778 4284052608
0.35352767 0.13860053 0.77800006 4285757557
0.35803077 0.13770561 0.77760005 4286086263
0.36242783 0.13732266 0.77650005 4286152318
0.36776361 0.13734879 0.77650005 4284182907
0.37347248 0.13751145 0.77724999 4283526527
0.3775363 0.13784006 0.77900004 4282869369
0.38400212 0.13894193 0.77900004 4285499793
0.34928373 0.1428089 0.77800006 4286473832
0.35298252 0.14218026 0.77833343 4286277737
0.35756695 0.14249404 0.77840006 4286016106
0.36246663 0.14264902 0.77824998 4286016110
0.36696205 0.14208904 0.77550006 4284180853
0.37297687 0.14225158 0.7766 4283987078
0.37732118 0.14198753 0.77850008 4283066491
0.38330397 0.14176381 0.77900004 4283921022
0.34974551 0.14616571 0.77900004 4287531398
0.35244736 0.14787748 0.77866673 4287400584
0.3581154 0.14774738 0.77783328 4287466636
0.36271602 0.14796869 0.77700001 4287665561
0.36774442 0.14787303 0.77633339 4283985017
0.37343809 0.14732404 0.7766 4284118148
0.37807521 0.14765385 0.77820003 4283592315
0.38192412 0.14952897 0.77900004 4284644484
0.35359061 0.15286602 0.77800006 4284174163
0.3577438 0.15178272 0.77775007 4285491564
0.36275235 0.15267727 0.77840006 4285951347
0.36765894 0.15201299 0.77700001 4284050809
0.37225544 0.15220769 0.77675003 4284513159
0.37763587 0.15232484 0.77900004 4284907140
0.3838608 0.15262961 0.77850008 4286747796
0.31153631 0.15557301 0.77900004 4287074702
0.35348195 0.15696289 0.77771431 4285428857
0.35689953 0.15796992 0.77700001 4285167742
0.36226591 0.15845065 0.77885723 4284381057
0.36713347 0.15753846 0.77716666 4284052609
0.37246102 0.15731905 0.778 4284841352
0.37743288 0.15775049 0.77785718 4285892491
0.38216999 0.15765235 0.77716666 4287141524
0.35387358 0.16301808 0.77850008 4284640623
0.35696763 0.16298491 0.77825004 4284641396
0.36196962 0.16286045 0.77749997 4283918704
0.36744604 0.16295031 0.77775007 4283524719
0.37211722 0.16260591 0.77900004 4284774527
0.3778944 0.16260488 0.7782501 4285826698
0.38213405 0.16291508 0.77700007 4286484367
0.35413232 0.16841897 0.77900004 4286547844
0.35719094 0.16811635 0.77750003 4286482308
0.36192155 0.16705705 0.77733332 4285430911
0.36672503 0.16757038 0.7766 4285037440
0.37165415 0.16716605 0.77750003 4285301129
0.3763248 0.16787465 0.77900004 4285037956
0.38254294 0.16731359 0.77775002 4285695625
0.34917483 0.17403995 0.77900004 4285956217
0.35303342 0.17294411 0.77840006 4286482047
0.35719475 0.17242511 0.77783328 4287205771
0.36242437 0.17270738 0.77775002 4287008652
0.36785591 0.17296368 0.77800006 4285759618
0.37217692 0.17268468 0.77850008 4286155406
0.37736022 0.17302364 0.77862501 4286089870
0.38220245 0.17211381 0.77740008 4285958282
0.35420239 0.17901917 0.77900004 4286613633
0.35787639 0.17874394 0.77766663 4286613633
0.362739 0.17758434 0.778 4286942599
0.36851665 0.17842369 0.77900004 4285758841
0.37266013 0.17767833 0.77866673 4286483340
0.3784211 0.17844069 0.77866673 4286155405
0.38080564 0.17753278 0.77766663 4286353294
0.31330839 0.18070582 0.77800006 4286615183
0.35423318 0.18326186 0.77900004 4286153082
0.35732788 0.18216704 0.77875006 4286547840
0.36245665 0.18239048 0.77757138 4286153083
0.36736518 0.18190478 0.77724999 4286022012
0.37202591 0.18212061 0.77800006 4286943375
0.37727481 0.18209752 0.77860004 4286483855
0.3813493 0.18272305 0.77866673 4286550163
0.3137314 0.18728353 0.77900004 4286746000
0.34356391 0.18849009 0.77900004 4286087291
0.35740924 0.18749194 0.77883339 4286745219
0.36178368 0.18756843 0.77900004 4286876805
0.36737588 0.1874177 0.77814293 4286745220
0.3722389 0.18751055 0.77833337 4287666839
0.37713853 0.1879207 0.77857149 4286812564
0.3814137 0.18839496 0.77866673 4286484370
0.36351758 0.19265278 0.77800006 4287337358
0.36817783 0.19288057 0.77875006 4287206029
0.37261349 0.19298783 0.77900004 4287667098
0.37657356 0.19267656 0.77900004 4286944406
0.38130084 0.19256918 0.77833337 4286615699
0.35865423 0.19816394 0.77900004 4287007877
0.36291525 0.1971066 0.778 4286613380
0.3673273 0.19770943 0.77683336 4287600791
0.37197495 0.19762599 0.778 4287141528
0.37868038 0.19813138 0.778 4286681751
0.38057411 0.19590379 0.77750003 4286813078
0.35441387 0.2045017 0.77900004 4286152828
0.3573902 0.2022761 0.77850008 4286613121
0.36171752 0.20444614 0.77850008 4284902758
0.36750445 0.202318 0.77825004 4286087809
0.37307525 0.20186318 0.77900004 4286812821
0.37870729 0.20025995 0.778 4286879130
0.38042611 0.20321843 0.77700007 4287405210
0.31262252 0.20976314 0.77600002 4286482053
0.35421771 0.20755944 0.77850008 4289242019
0.35772297 0.20719697 0.77833337 4287992465
0.36186743 0.20770356 0.77875006 4287991436
0.36952975 0.20679176 0.77900004 4287469978
0.3805742 0.20589682 0.77500004 4288325022
0.38115874 0.21254654 0.77600002 4287535249
0.35672581 0.21942554 0.77900004 4287600277
0.36216354 0.21859606 0.77833343 4287534228
0.36644703 0.21954536 0.77900004 4287073936
0.37183332 0.21748346 0.77900004 4286745741
0.37704843 0.21955541 0.77850008 4286745480
0.38210687 0.21889296 0.77775007 4287403149
0.31390485 0.22329807 0.77900004 4283322954
0.35461992 0.22366339 0.77900004 4287139726
0.3570556 0.22264652 0.77680004 4287139725
0.36270019 0.22237052 0.7778334 4287008143
0.36750388 0.22283816 0.77700007 4286811279
0.3719247 0.22389087 0.77900004 4286482828
0.37818503 0.22277737 0.77850008 4286547845
0.3817609 0.22285195 0.77780008 4287271565
0.35345095 0.22810917 0.77820003 4287008393
0.35757175 0.22787675 0.77657139 4286942856
0.36246151 0.22682436 0.77585715 4286679947
0.36744213 0.2276102 0.77580005 4286548619
0.37246019 0.22674903 0.77775007 4286285704
0.37727308 0.2281857 0.77771431 4286350977
0.38159212 0.22789004 0.77750003 4285626993
0.35265303 0.23321542 0.77820003 4283718995
0.35767958 0.23242401 0.77600002 4283061572
0.36283946 0.23235069 0.77550006 4283259460
0.36751327 0.23264 0.77625 4283391298
0.37300286 0.23214479 0.77700001 4283851600
0.37754008 0.23218036 0.7753334 4282272569
0.31241608 0.23905812 0.77500004 4290359987
0.34272921 0.23829871 0.77850008 4280693783
0.34758973 0.23800825 0.77733344 4284640608
0.35216081 0.23668964 0.77700001 4284377180
0.35776874 0.23728581 0.77683336 4282931015
0.36376542 0.2375384 0.77500004 4280563231
0.36723524 0.23720984 0.77550006 4280629025
0.37245736 0.23755233 0.77600002 4280892707
0.37754187 0.23745778 0.77600002 4280826915
0.38114423 0.23997208 0.77500004 4284904031
0.34361118 0.24029005 0.77800006 4286024275
0.34707072 0.24198891 0.77742863 4284631607
0.35264763 0.24288654 0.7782501 4285358663
0.35784847 0.24283592 0.77671432 4284631864
0.36376259 0.24362703 0.77633333 4286138162
0.3679657 0.2427201 0.77639997 4285353273
0.37235418 0.24224885 0.77600002 4284237103
0.37654522 0.24270643 0.77550006 4285283119
0.34759346 0.2476626 0.77866673 4288032569
0.35218737 0.24777299 0.77766675 4288233281
0.35705441 0.24748392 0.77649999 4287443261
0.3623859 0.24751861 0.77633333 4287705660
0.36752743 0.24742602 0.77575004 4287705659
0.37234724 0.24782458 0.77675003 4287836987
0.37621522 0.24758734 0.77575004 4287838270
0.31799418 0.25065258 0.77800006 4289620335
0.35353613 0.25160575 0.77733332 4290739337
0.35746953 0.25199965 0.77724999 4291201687
0.36245909 0.25179461 0.77633333 4290669434
0.36742461 0.25235662 0.77580005 4288558148
0.37220666 0.25242302 0.77550006 4288427330
0.37615845 0.25071812 0.77550006 4288560707
0.32195541 0.25888813 0.77700001 4286153847
0.35461906 0.25540081 0.77800006 4288491329
0.35832918 0.25578356 0.77900004 4288491588
0.36278194 0.25633529 0.77780002 4288951881
0.36767024 0.25815952 0.7772857 4289149514
0.37250009 0.25772196 0.7762 4289084233
0.37576807 0.25751117 0.77666664 4289151051
0.32145479 0.26269871 0.77566671 4281882178
0.35401878 0.2625322 0.77800006 4287772224
0.35806105 0.26194373 0.77816671 4288231493
0.36314344 0.26159501 0.77900004 4289082692
0.36747506 0.26292309 0.77733344 4286396478
0.37205112 0.26241595 0.77550006 4286137156
0.37602213 0.26191863 0.77700001 4287447876
0.35372233 0.2661013 0.77800006 4289179815
0.35743615 0.26650295 0.77900004 4286745219
0.36803913 0.26746872 0.77740002 4283720531
0.37083948 0.26758638 0.77500004 4283262034
0.32468212 0.27206382 0.77800006 4282344527
0.36709583 0.27083161 0.77850008 4280832312
0.37041962 0.27183142 0.77700001 4281424706
0.37044415 0.27731964 0.77833343 4281426503
0.36860615 0.28203166 0.77650005 4281558351
0.35352087 0.28796768 0.77900004 4282873703
0.35742566 0.28769523 0.77800006 4283268460
0.36262891 0.28655463 0.77750003 4281558864
0.36564437 0.28537095 0.77700001 4281362254
0.32118133 0.058701705 0.78200006 4283244327
0.33219841 0.058777217 0.78299999 4288188567
0.318656 0.060742784 0.78100002 4285540401
0.34304979 0.061472706 0.78350008 4284682780
0.34720048 0.061986443 0.78325003 4285077538
0.35258019 0.060755093 0.78100008 4284487196
0.3559798 0.063553393 0.78066665 4285340706
0.34753582 0.065232314 0.78400004 4285406498
0.35349333 0.069399357 0.78300005 4285276195
0.35680202 0.067763522 0.78157145 4285341219
0.36065176 0.069144607 0.78000003 4285341733
0.37262952 0.069209605 0.78050005 4285210914
0.37830034 0.068221934 0.78116673 4285541934
0.3190622 0.073531829 0.78200006 4281612851
0.34923166 0.073639154 0.78300005 4284752420
0.35372281 0.072628513 0.78350008 4285145895
0.35715699 0.072464399 0.7816667 4285079591
0.36294326 0.072350636 0.78033334 4285276967
0.36705723 0.073385313 0.78000003 4285146409
0.37203968 0.071985178 0.78000003 4285080356
0.37806913 0.072412193 0.78066677 4284885290
0.31987801 0.075843863 0.78400004 4284047706
0.34967998 0.075858116 0.78400004 4284753709
0.35395253 0.075863197 0.78400004 4284621609
0.35773063 0.077451125 0.78157151 4284037182
0.36238194 0.078159481 0.78025007 4284492339
0.36757705 0.076943852 0.78033334 4284687404
0.37133458 0.075509578 0.78000003 4284686886
0.37776643 0.079757445 0.78000003 4283507499
0.31734881 0.083173096 0.78300005 4284574050
0.35474071 0.084044822 0.78100002 4283382350
0.35717192 0.082352534 0.7816667 4284898150
0.36067539 0.082891144 0.78000003 4283577411
0.37277961 0.083271176 0.78000003 4284037191
0.37694633 0.082982309 0.78049999 4283313978
0.35695305 0.087243311 0.78116673 4282988879
0.37350056 0.086094692 0.78000003 4283711054
0.31522754 0.090596341 0.78300005 4287468437
0.34753862 0.094072312 0.78233337 4281941324
0.35422385 0.093043543 0.78100002 4281941588
0.35707989 0.092961103 0.78025001 4282599781
0.36283201 0.093472853 0.78000003 4281284436
0.37285456 0.092490144 0.78039998 4281613396
0.37615022 0.094689094 0.78100002 4281811806
0.34752944 0.097859114 0.78150004 4284573808
0.3528288 0.097712278 0.78025007 4283324516
0.35773742 0.097754151 0.78050005 4284575615
0.3681885 0.098777756 0.78000003 4280760149
0.37210748 0.097378828 0.78000003 4281088857
0.37798133 0.096733846 0.78033334 4281746783
0.38260818 0.097892672 0.78100002 4283657043
0.34820384 0.10229214 0.78300005 4284115054
0.35203546 0.10219996 0.78060001 4284048746
0.36926466 0.10089769 0.78000003 4280563287
0.34288123 0.10865177 0.78300005 4283852655
0.34699881 0.1075519 0.78266668 4283721069
0.35179266 0.10693571 0.78066665 4284247411
0.37356672 0.10620553 0.78000003 4280895333
0.38348502 0.10843442 0.78050005 4282145135
0.34288675 0.11183625 0.78300005 4284312689
0.34723282 0.11293009 0.78316671 4282799710
0.35242072 0.11290175 0.78140002 4282998121
0.35820994 0.11295377 0.78066665 4284707965
0.37717044 0.11292744 0.78000003 4281422704
0.38283762 0.11278999 0.78133339 4282211443
0.34396067 0.11608473 0.78300005 4285033842
0.34714997 0.1172174 0.78200006 4284311150
0.35282835 0.11692005 0.78133339 4281288021
0.37253326 0.11573198 0.78000003 4282605429
0.37575158 0.11574589 0.78000003 4281356395
0.38220268 0.11630644 0.78000003 4282013806
0.31250834 0.12324156 0.78150004 4286877325
0.34334126 0.12048303 0.78400004 4286079074
0.34739098 0.12244418 0.782875 4286212975
0.35170102 0.1221897 0.78116673 4286080621
0.34699863 0.12775832 0.78160006 4286476142
0.35225862 0.12709133 0.78000003 4287068280
0.31311327 0.13408488 0.78300005 4287403150
0.34337172 0.13324262 0.78400004 4287070590
0.34661385 0.13215098 0.78166676 4286346096
0.35440403 0.13048579 0.78000003 4285948773
0.35760844 0.13049766 0.78000003 4285291613
0.38230932 0.13486162 0.78000003 4282341993
0.31311542 0.13726921 0.78300005 4287534735
0.34231973 0.13962135 0.78400004 4288253835
0.34765324 0.13736564 0.78316671 4287204743
0.35213861 0.13778196 0.78060007 4286546814
0.35656503 0.13684733 0.78000003 4285100394
0.38199612 0.13786471 0.7802 4283329398
0.31352064 0.14381923 0.78400004 4287008648
0.34200144 0.14267638 0.78325009 4285554526
0.34701648 0.14255626 0.78250003 4284897111
0.35124099 0.14106221 0.78000003 4286082155
0.38108686 0.14269462 0.78033334 4282737010
0.31312394 0.14681804 0.78300005 4286943628
0.34341347 0.14707187 0.78400004 4287465862
0.34752679 0.147422 0.78200001 4287203717
0.35287008 0.14742406 0.78000003 4287531400
0.35660738 0.14638159 0.78000003 4287135616
0.38292569 0.1472134 0.7802 4284052350
0.38503456 0.14567618 0.78100002 4283658106
0.31339681 0.15225647 0.78366679 4286746249
0.34689483 0.15204749 0.78214294 4285359973
0.35108265 0.15242524 0.78033334 4285029982
0.37813085 0.15393604 0.78000003 4285103746
0.38172245 0.15325557 0.78000003 4286287248
0.34387526 0.15793812 0.78333336 4285297269
0.34692594 0.15695898 0.78119999 4285559156
0.35024202 0.15694812 0.78000003 4285821301
0.363087 0.15595722 0.78000003 4283590768
0.36523366 0.15597038 0.78000003 4283788922
0.37814716 0.15605998 0.78000003 4285629063
0.34420103 0.16209935 0.78200006 4285430910
0.34758112 0.16247644 0.78116673 4285299323
0.35209078 0.16207977 0.78120005 4284970359
0.37386778 0.16027531 0.78000003 4285827214
0.37713724 0.16455032 0.78000003 4285366406
0.34712851 0.16806354 0.78250003 4285496185
0.35254553 0.16724201 0.78183335 4285495670
0.35671735 0.16652639 0.78000003 4285429879
0.37823495 0.16668506 0.78000003 4285169284
0.38040572 0.16776735 0.78000003 4285498505
0.34415299 0.17241167 0.78300005 4286417541
0.34766763 0.17204812 0.78125006 4286548869
0.35161093 0.17084713 0.78050005 4287074700
0.38043538 0.17095776 0.78000003 4285761676
0.31531572 0.17974167 0.78300005 4286483597
0.34309688 0.17559926 0.78299999 4286351233
0.34792119 0.1774758 0.78175002 4286087803
0.35216531 0.17800304 0.7802 4286482047
0.35786188 0.17714807 0.78000003 4287073670
0.36754054 0.17722304 0.78000003 4285889656
0.37187213 0.17938712 0.78000003 4286877325
0.37618208 0.17836362 0.78000003 4286549392
0.31412032 0.18328796 0.78000003 4286615183
0.34779182 0.18272416 0.78299999 4286942601
0.35255486 0.18243791 0.78100002 4286613378
0.31412709 0.18540582 0.78000003 4286746255
0.34261519 0.18701507 0.78175002 4286218879
0.34787232 0.18698902 0.78150004 4286416255
0.35339049 0.18739952 0.78114289 4286876805
0.36224788 0.18780896 0.78000003 4287074184
0.36549947 0.18996558 0.78000003 4287008391
0.38191685 0.18599138 0.78050005 4286681235
0.34247363 0.19121651 0.78299999 4286416258
0.3473818 0.19154447 0.78275001 4287666323
0.35216418 0.19256739 0.78242862 4286942598
0.35744819 0.1933689 0.78116673 4286613633
0.3612189 0.19311775 0.78000003 4287073929
0.37851834 0.19436163 0.78000003 4286615958
0.38068771 0.19438717 0.78000003 4286813337
0.34743375 0.19665062 0.78400004 4285560948
0.35271794 0.19716409 0.78375006 4286678915
0.35706773 0.19742095 0.78120005 4287205513
0.36124888 0.19631004 0.78000003 4287337102
0.37710679 0.19718814 0.78000003 4286681493
0.34800968 0.2014617 0.78400004 4286087548
0.35219696 0.20276631 0.78299999 4286613634
0.35552108 0.20195809 0.78150004 4287139978
0.36249673 0.20170918 0.78025001 4286152828
0.36636588 0.20417245 0.78000003 4285231983
0.37322766 0.20496264 0.78000003 4286944406
0.37716797 0.20216615 0.78000003 4286878873
0.3516171 0.20725226 0.78150004 4288059798
0.3570658 0.20904553 0.78000003 4285422945
0.36700681 0.20821932 0.78050005 4287863961
0.37262028 0.20836954 0.78000003 4287075734
0.37856197 0.20768292 0.78200006 4287075991
0.3813422 0.20746116 0.78099996 4287405209
0.31545389 0.21378578 0.78300005 4286547589
0.34861302 0.21237163 0.78320009 4286343279
0.35214031 0.21219167 0.78240001 4286802802
0.35704917 0.21284442 0.78225005 4287854719
0.36226523 0.21278934 0.78183341 4287135104
0.36705661 0.21248934 0.78050005 4287403414
0.3723191 0.21246673 0.78016669 4286943891
0.37827182 0.21283355 0.78125 4287009938
0.38190627 0.21308404 0.78200006 4287536022
0.34745109 0.21712033 0.78340006 4287530635
0.35246232 0.21748881 0.78300011 4287072392
0.35727704 0.21807511 0.78183341 4287598992
0.36158541 0.21667106 0.78120005 4287861394
0.36687571 0.21662313 0.78000003 4287271570
0.37239063 0.21780956 0.78016669 4286811534
0.37797022 0.21690781 0.78050005 4287074703
0.38148153 0.2170938 0.78100002 4287403665
0.31510037 0.22202802 0.78200006 4285559147
0.3479951 0.22378723 0.78350008 4285227619
0.35348198 0.22249672 0.78250003 4286743942
0.35504994 0.2218162 0.78000003 4287271312
0.37347358 0.22312456 0.78000003 4286613899
0.37616548 0.22290008 0.78033334 4286416776
0.31472465 0.22599915 0.78100002 4285559147
0.31514192 0.22841953 0.78200006 4286086261
0.33961558 0.2281287 0.78400004 4286350975
0.34286699 0.2292324 0.78400004 4286415483
0.34823903 0.22738464 0.78233337 4286150518
0.35294202 0.22605978 0.78000003 4286811018
0.38114601 0.22645403 0.78000003 4286810758
0.31516436 0.23161712 0.78200006 4286019955
0.34233579 0.23255758 0.78220004 4284443740
0.34773734 0.23237689 0.78200006 4284509024
0.3508614 0.23244037 0.78000003 4279508501
0.31481755 0.23877718 0.78100002 4287072133
0.31580043 0.23633558 0.78350008 4285953651
0.33928227 0.23747098 0.78300005 4286811518
0.34203815 0.2370245 0.78140008 4284575325
0.34725183 0.23604503 0.7815001 4285824626
0.33976382 0.24206571 0.78400004 4287204199
0.34270963 0.24271774 0.78180003 4286470209
0.31823179 0.24613497 0.78400004 4287644751
0.33982766 0.24743436 0.78400004 4289088345
0.34320757 0.24680448 0.78183341 4288365134
0.34721211 0.24981333 0.78100002 4288562002
0.33986777 0.25065774 0.78400004 4288359743
0.34280446 0.25153458 0.78325003 4289284698
0.34732303 0.2528446 0.78185719 4289283413
0.35217059 0.25335619 0.78066665 4288822861
0.32182494 0.25624451 0.78200006 4286528315
0.34427792 0.25609398 0.78400004 4289015877
0.34723631 0.25804934 0.78325003 4288884802
0.35203394 0.25766584 0.78183335 4288951107
0.35773993 0.25824201 0.78000003 4289017160
0.34720904 0.26334971 0.78300005 4287841613
0.35251737 0.26294079 0.78150004 4287771967
0.35560355 0.2603533 0.78000003 4289279302
0.36291099 0.26335299 0.78000003 4285872704
0.34800464 0.26687691 0.78319997 4286679166
0.35152173 0.2659612 0.78200006 4286934635
0.362986 0.26800555 0.78060001 4286876289
0.36661923 0.26701492 0.78000003 4289636771
0.32673886 0.27166003 0.78300005 4281950796
0.35785779 0.27221632 0.78314286 4280699444
0.36246836 0.2722235 0.78183341 4281028410
0.36691293 0.27360672 0.78033334 4280701494
0.32941663 0.27850714 0.78400004 4282148689
0.35880476 0.2768569 0.78400004 4280702271
0.36228618 0.27732241 0.78200006 4282215253
0.36722136 0.27702737 0.7808333 4281097281
0.32902932 0.28030798 0.78300005 4282673750
0.36240542 0.28273991 0.78200006 4282018904
0.36656639 0.28239918 0.78200006 4281229384
0.370303 0.28200874 0.78250003 4281163846
0.3352204 0.28652716 0.78200006 4281228623
0.3476766 0.2892856 0.78300005 4283140467
0.35115075 0.28863686 0.78100002 4280047425
0.35683975 0.28766584 0.78400004 4280770890
0.36250287 0.28707826 0.78200006 4281230670
0.3684153 0.28539905 0.78300005 4281296202
0.32495263 0.059001785 0.78600001 4283048746
0.32772923 0.058926709 0.78500003 4284171852
0.32069567 0.06326104 0.78600001 4285671985
0.33795288 0.061705798 0.78650004 4284946206
0.34137461 0.063344628 0.78700006 4285405988
0.35225144 0.063191779 0.78500003 4285406499
0.34344336 0.067596979 0.78683347 4285341219
0.3471415 0.067955419 0.78600007 4285341476
0.35118657 0.067445777 0.78500003 4285406755
0.32028645 0.071687244 0.78500003 4284836454
0.33903426 0.074193425 0.78900003 4283833885
0.3421956 0.073191196 0.78740007 4283964960
0.34680486 0.072657317 0.78620005 4284424226
0.35012153 0.071699694 0.78500003 4284949285
0.3422341 0.077157728 0.78650004 4283506722
0.34703231 0.077040225 0.78525001 4284426285
0.35226756 0.078085184 0.78500003 4284557103
0.35654768 0.078090824 0.78500003 4283843913
0.34216598 0.08246927 0.78633338 4283839550
0.34714827 0.08238674 0.78550005 4284561733
0.35035521 0.081326574 0.78550005 4284495169
0.31937495 0.08690504 0.78800005 4284837222
0.33832884 0.088446386 0.78900003 4282728272
0.34260586 0.087908708 0.78733331 4284504677
0.3473745 0.087765887 0.78600001 4284766821
0.31724024 0.093309641 0.78800005 4286942094
0.33797371 0.091296986 0.78900003 4282006606
0.34246564 0.092136987 0.78700012 4283322466
0.34717026 0.091709308 0.78633338 4283585636
0.31723991 0.097577445 0.78800005 4286153094
0.34238958 0.096288435 0.78780001 4282797147
0.34572372 0.09785293 0.78660005 4284113258
0.34291518 0.10400164 0.78800005 4282998382
0.34590259 0.10240763 0.78666669 4284510328
0.33906212 0.10733606 0.78900003 4282800225
0.34183833 0.10733286 0.78633338 4283194985
0.33828059 0.11253756 0.78800005 4285034863
0.34171718 0.11271311 0.78620005 4284311656
0.33928579 0.11666615 0.78700006 4284048744
0.34195906 0.1180848 0.78575003 4285231218
0.339086 0.12337853 0.78900003 4287595910
0.34190819 0.12215747 0.78660005 4286212202
0.34592485 0.12277054 0.78500003 4284766297
0.31410953 0.12812921 0.78550005 4287402895
0.33841562 0.12709734 0.78742868 4286541680
0.34282467 0.12722826 0.78628582 4286542193
0.34593523 0.12702926 0.78500003 4287858566
0.31471092 0.13157214 0.78700006 4287600787
0.33910331 0.13308281 0.78733331 4286741882
0.34209824 0.13197798 0.78600007 4286543219
0.31391683 0.13974735 0.78500003 4287271563
0.33900511 0.13787548 0.78625005 4287335558
0.34262568 0.13659704 0.78620005 4287271306
0.34596825 0.13874388 0.78500003 4287401350
0.3147184 0.14223641 0.78700006 4287139977
0.33912593 0.14270623 0.78700006 4286015077
0.33699301 0.14905433 0.78900003 4286282872
0.34139359 0.14757773 0.78675008 4287202690
0.34599286 0.14620128 0.78500003 4287990922
0.33807841 0.15226908 0.78900003 4285425510
0.34258938 0.15189977 0.787 4286017647
0.34602487 0.1547271 0.78500003 4285225050
0.33888528 0.15749222 0.78833342 4285690999
0.34174767 0.15681836 0.78642857 4285755507
0.31728661 0.16271622 0.78800005 4286088584
0.33876076 0.1627751 0.78800005 4285694082
0.34194034 0.16267362 0.78640002 4285233531
0.31749636 0.16709764 0.78850007 4286219913
0.33899206 0.16716036 0.78850007 4285563009
0.34270972 0.16719826 0.78642857 4285759872
0.34189695 0.17181802 0.78720003 4285496441
0.31691766 0.17745313 0.78700006 4286680202
0.33925825 0.17905723 0.78900003 4286219648
0.34183758 0.17791703 0.78625 4286219648
0.34613773 0.17819396 0.78500003 4285956474
0.33927405 0.18227433 0.78900003 4286679685
0.34297031 0.18226205 0.78685719 4286153599
0.34615636 0.18139687 0.78500003 4286877321
0.3392905 0.18549207 0.78900003 4286745478
0.34171617 0.18689343 0.78760004 4286284671
0.33933851 0.19407664 0.78900003 4284508775
0.34192955 0.19372743 0.78750002 4285166448
0.31953788 0.19801848 0.78800005 4287469208
0.33935821 0.19729748 0.78900003 4285364084
0.34297952 0.19756728 0.78675002 4285889914
0.34627032 0.19849327 0.78500003 4285034604
0.351311 0.19888873 0.78500003 4285692277
0.31955194 0.20123126 0.78800005 4287403412
0.33939299 0.20266758 0.78900003 4285495932
0.34267107 0.20286846 0.78728575 4285495417
0.34731981 0.2033062 0.7856667 4285232240
0.34677699 0.20731623 0.78600001 4287403411
0.35066935 0.20815937 0.78500003 4288323998
0.34336957 0.21317813 0.78800005 4287394426
0.34630674 0.21245416 0.78680003 4287396224
0.3395136 0.21879473 0.78900003 4285490540
0.3427577 0.21750377 0.78712505 4286608507
0.31790784 0.22186689 0.78900003 4286546042
0.33955032 0.22310022 0.78900003 4286413184
0.34272861 0.22238524 0.78633338 4286806654
0.3473393 0.22179377 0.7853334 4287135874
0.35167304 0.22183712 0.7853334 4287268744
0.33843851 0.22747183 0.78800005 4286216052
0.34279466 0.22620079 0.78540003 4286477427
0.34682369 0.22760491 0.7856667 4285952624
0.33842343 0.23212135 0.78820008 4283259211
0.34030849 0.23285796 0.78550005 4281680177
0.33744356 0.23802301 0.78780001 4284442971
0.34012559 0.23593016 0.78500003 4286877057
0.33705509 0.24159446 0.78680003 4283846718
0.34019747 0.24237484 0.78500003 4283380768
0.31983635 0.24523808 0.78800005 4290753976
0.33778468 0.24721164 0.78683335 4288035395
0.32124266 0.25108004 0.78600001 4288563027
0.33718121 0.25219005 0.78783339 4288098883
0.34032893 0.25313023 0.78500003 4288688196
0.32344788 0.25540319 0.78600001 4289351511
0.32565951 0.25973254 0.78600001 4284625198
0.33970922 0.25747606 0.78850007 4288822097
0.34200037 0.25678504 0.78625005 4288819014
0.34520274 0.25998607 0.78600001 4289016391
0.32871211 0.26474044 0.78800005 4281814331
0.34402075 0.26262599 0.78620005 4287512396
0.3482843 0.26202935 0.78550005 4289015873
0.35309535 0.26243192 0.78650004 4289147714
0.32875329 0.26798281 0.78800005 4282014791
0.34442797 0.26662311 0.78650004 4288388759
0.34621397 0.26931733 0.78800005 4281026356
0.32754418 0.27019718 0.78500003 4281753417
0.34813276 0.27289104 0.78725004 4280832058
0.35305801 0.27309591 0.78600001 4280437808
0.3563441 0.2731536 0.78600001 4280501806
0.33125922 0.27685034 0.78850007 4281359686
0.3475771 0.27752095 0.78780001 4283793772
0.35237351 0.27740914 0.78675008 4280702012
0.35688409 0.2787253 0.7853334 4281754960
0.36040413 0.27940398 0.78500003 4281886292
0.33207792 0.28322113 0.78500003 4281425995
0.34807229 0.28395167 0.78833342 4280637503
0.35277721 0.28289276 0.78742856 4282150487
0.35751963 0.28286558 0.78575009 4283136616
0.36070269 0.28284529 0.78550005 4284516986
0.3375589 0.28745538 0.78750002 4281098062
0.34305155 0.28864145 0.78750002 4281691994
0.34752545 0.28772533 0.78775001 4280507716
0.3524569 0.28737822 0.78650004 4280508229
0.35724795 0.28585696 0.78500003 4280639562
0.36056817 0.2870163 0.78500003 4280836427
0.32784763 0.061675668 0.79300004 4285538346
0.33269313 0.062652841 0.79175001 4285669672
0.3361688 0.062923782 0.79066664 4285209891
0.32293922 0.066920802 0.79150003 4285946717
0.33371726 0.066716708 0.79333335 4285407268
0.33781359 0.066894032 0.79116672 4285538339
0.34182197 0.06683939 0.79050004 4285275424
0.32380569 0.072235093 0.79100001 4283520336
0.32610881 0.072508946 0.79400003 4284639075
0.33429533 0.071345553 0.79300004 4284949542
0.33780009 0.07238131 0.79257149 4284686883
0.34096435 0.070095435 0.79100001 4284948256
0.32232586 0.078564525 0.79000002 4284574050
0.32528722 0.076617651 0.79200006 4283849813
0.33824226 0.077709675 0.79216671 4283966763
0.32334566 0.082034349 0.79250002 4284245085
0.33817595 0.082370795 0.79128569 4283641659
0.32227278 0.087399915 0.79250002 4284508002
0.33472282 0.088644803 0.79400003 4283122519
0.33646321 0.086809494 0.79100001 4283318097
0.33388129 0.091640577 0.79200006 4282796122
0.33711267 0.093106002 0.79075003 4282665050
0.33372819 0.097527377 0.79333335 4283785587
0.33775973 0.097689539 0.79100001 4282799206
0.34270659 0.099981293 0.79000002 4282667102
0.31864887 0.10337415 0.79150003 4286811274
0.33311084 0.10196805 0.79219997 4282471784
0.33752134 0.10278425 0.79042858 4281419870
0.34270924 0.10212267 0.79000002 4281813853
0.31925303 0.10786626 0.79300004 4287205774
0.33373538 0.10755956 0.79333335 4284509809
0.33658859 0.10757014 0.79075003 4282931550
0.31965619 0.1123047 0.79400003 4287008395
0.33373916 0.1118606 0.79333335 4284969840
0.33605924 0.11286891 0.79033333 4285495670
0.31965742 0.11768294 0.79399997 4286745996
0.33409992 0.11711857 0.79375005 4285100403
0.33770403 0.11819232 0.79250002 4283784288
0.31965882 0.12198573 0.79400003 4286745739
0.33433163 0.12399404 0.79300004 4288451473
0.33769885 0.12252378 0.79180002 4285752937
0.33361602 0.12685947 0.79300004 4287134328
0.3363634 0.12797295 0.79100007 4285950056
0.33349043 0.13300164 0.79225004 4287465604
0.3365151 0.1326915 0.79100001 4286150003
0.31966844 0.13812336 0.79400003 4287139978
0.33285391 0.13779427 0.792 4288124560
0.33663517 0.13758472 0.79075003 4286942085
0.33478385 0.14245003 0.79400003 4286605672
0.33705151 0.14259753 0.79120004 4285948771
0.33286455 0.14832981 0.79283339 4287664010
0.33712766 0.14748687 0.79016668 4287268739
0.31968352 0.15211332 0.79400003 4286549128
0.33351594 0.15311995 0.79350001 4284766039
0.33720914 0.15260246 0.79075003 4285294181
0.31888956 0.15924367 0.79200006 4286614925
0.33258441 0.15750071 0.79280001 4286811021
0.33683673 0.15750691 0.7906 4285954684
0.33462131 0.16173622 0.79350007 4285562238
0.33691224 0.16235977 0.79124999 4285956225
0.33703128 0.16724327 0.792 4285430908
0.31891507 0.17213726 0.79200006 4286483083
0.33444595 0.17239776 0.79300004 4286417806
0.33748826 0.17176345 0.79100001 4286219911
0.34008899 0.17306274 0.79100001 4285035121
0.3185201 0.17513789 0.79100001 4286351495
0.33467308 0.17681721 0.79350007 4285693566
0.33775279 0.177573 0.79200011 4285824635
0.34117883 0.17521679 0.79100001 4285956221
0.32191509 0.18442878 0.79400003 4286615183
0.33489689 0.18016319 0.79400003 4285299060
0.33710012 0.18283564 0.79150003 4286482561
0.32192582 0.1876628 0.79400003 4286746512
0.3378135 0.18738119 0.79159999 4286087548
0.32140458 0.19272821 0.79266673 4286746000
0.33495626 0.19311117 0.79400003 4286745737
0.33779973 0.19216348 0.791125 4286219393
0.3419207 0.19218586 0.79000002 4286350465
0.32074547 0.19662279 0.79100001 4287271829
0.33728611 0.19796601 0.79174995 4284969326
0.3203778 0.20496364 0.79000002 4287074704
0.3377375 0.20253104 0.79275006 4285495931
0.32079908 0.20844972 0.79100001 4286877067
0.33847713 0.20769863 0.79185718 4286877845
0.34343976 0.208526 0.79075003 4287338138
0.32122695 0.21302357 0.79200006 4286613638
0.33786616 0.21285041 0.79339999 4286147957
0.34104407 0.21252489 0.79100007 4286081393
0.31828582 0.21784692 0.79000002 4287008138
0.33849791 0.21684068 0.79175001 4286078309
0.31950682 0.22083274 0.79300004 4288059797
0.33722073 0.22291653 0.79228574 4285890179
0.321852 0.22742005 0.79333335 4284967523
0.33311027 0.22833011 0.79320002 4286153084
0.33619443 0.22693573 0.79124999 4285429111
0.3215512 0.2325812 0.79250002 4284967779
0.33365759 0.23217337 0.79200006 4283588681
0.3359257 0.2321187 0.79050004 4280627744
0.32251462 0.23742092 0.79300004 4285164390
0.33356801 0.2383693 0.79200006 4283062084
0.33689997 0.23623307 0.79100007 4286548602
0.32142335 0.2421543 0.792 4288255637
0.32875365 0.24065688 0.79400003 4283387717
0.33229858 0.24225517 0.79200006 4285354819
0.33583003 0.24384664 0.79000002 4287446587
0.32425672 0.24805245 0.79350007 4288903809
0.33297437 0.24741398 0.79350001 4287315271
0.33629015 0.24740058 0.79100001 4287902010
0.32285661 0.25019774 0.79000002 4288497748
0.32600936 0.25312135 0.79233336 4288167754
0.33302739 0.25248092 0.79350001 4289943140
0.33569628 0.25420731 0.79200006 4294952402
0.32831585 0.2586233 0.79250002 4288495685
0.33718419 0.25785059 0.79180002 4292190895
0.32951969 0.26324555 0.79000002 4286284406
0.33116201 0.26240161 0.79400003 4286065709
0.33796209 0.26224154 0.79325008 4288435298
0.34182969 0.26256645 0.79075003 4288497241
0.33898935 0.26809004 0.79333335 4285099878
0.34189153 0.26691177 0.79075003 4286282358
0.33293268 0.27286413 0.79266673 4280438069
0.34258813 0.27164993 0.79350007 4280369198
0.34592021 0.27249402 0.79100001 4281095744
0.3528409 0.27244043 0.79050004 4280172330
0.3559154 0.27232569 0.79000002 4280104739
0.33779016 0.2784887 0.79360002 4281426502
0.34315661 0.27786019 0.79280007 4281163077
0.34546137 0.27793396 0.79100001 4281162308
0.33497018 0.28138235 0.79200006 4280768832
0.33760229 0.28249931 0.79300004 4281887312
0.34361163 0.28271484 0.79333335 4282610524
0.34663484 0.28231689 0.79100001 4280702783
0.33877885 0.2872557 0.79300004 4281362000
0.34355476 0.2877017 0.79300004 4284387450
0.345615 0.28666425 0.79100001 4281361226
0.32821554 0.064105779 0.79650009 4285669931
0.33124325 0.064065464 0.79600006 4285603879
0.32816276 0.067553982 0.79900002 4286011483
0.33237779 0.067743875 0.79699999 4286537312
0.32877952 0.072781093 0.79700011 4283981145
0.33253077 0.072737046 0.79650003 4284108620
0.33513921 0.07475508 0.79500002 4284819241
0.32823107 0.078410089 0.79566669 4284179035
0.33253229 0.078133099 0.79650009 4283714121
0.33514017 0.077986062 0.79500002 4284360751
0.32778785 0.082070611 0.79633337 4283586900
0.33242613 0.082799897 0.79779994 4283978068
0.33514166 0.082294136 0.79500002 4283904318
0.32436556 0.087676957 0.79500002 4284771175
0.32831988 0.086791217 0.79675007 4283520596
0.33253437 0.086763874 0.79650009 4283386450
0.33514291 0.085525252 0.79500002 4283382089
0.3224144 0.093120709 0.79550004 4287205267
0.32709953 0.091992654 0.79816675 4286087039
0.33312696 0.09183161 0.7974 4284638575
0.33514717 0.094141923 0.79500002 4283520872
0.32302237 0.097614095 0.79700005 4285495678
0.32708114 0.097859398 0.79900002 4285561215
0.33197543 0.097708941 0.79775006 4285298048
0.32363057 0.10212517 0.79850006 4286219654
0.33224913 0.10296968 0.79666668 4282997097
0.32383355 0.10543554 0.79900002 4286942604
0.32992133 0.10746788 0.79800004 4285890176
0.33231565 0.10790774 0.79725003 4284838004
0.33239454 0.11309361 0.79699999 4286022787
0.33234274 0.11798532 0.796 4284509808
0.32046491 0.12444989 0.79600006 4286745739
0.33263198 0.12291726 0.79720008 4285624174
0.33517203 0.12215166 0.79500002 4285425512
0.32086903 0.12784711 0.79700005 4286877068
0.33158296 0.12835453 0.79675007 4285619807
0.3217288 0.13258155 0.79733342 4286745482
0.32601523 0.13358307 0.79900002 4285957253
0.33162156 0.13214847 0.79683334 4286346096
0.32258865 0.13624145 0.79766673 4286613895
0.32994992 0.13882884 0.79800004 4286151544
0.33074191 0.13686271 0.796 4287401610
0.32218033 0.14231727 0.79700005 4287337357
0.32936954 0.14285368 0.79833335 4285689705
0.33237669 0.14280337 0.796 4285752673
0.32133937 0.14680308 0.79633337 4286745993
0.32975674 0.14739057 0.79750001 4287072387
0.33188403 0.1466984 0.79566669 4287334273
0.32008624 0.15230495 0.79500002 4286549128
0.32956007 0.15270334 0.79699999 4286216311
0.33110735 0.15349767 0.79550004 4285622119
0.32274827 0.15720929 0.79800004 4286351751
0.3299849 0.1583053 0.79800004 4286548874
0.33090651 0.15663674 0.79500002 4286549902
0.32327664 0.16251834 0.79750001 4286089099
0.33262825 0.16233851 0.79650009 4285431166
0.32308516 0.1678219 0.79700011 4286089100
0.33350122 0.16790019 0.79725009 4284905078
0.33527085 0.16743624 0.79500002 4285036664
0.32350048 0.17236248 0.79800004 4286220170
0.33265001 0.17260578 0.79700005 4285628547
0.32331178 0.17766419 0.79750001 4286877840
0.33206475 0.17770986 0.79660004 4285167481
0.3223106 0.18142366 0.79500002 4286549133
0.33310974 0.18202834 0.79750001 4285628028
0.33554333 0.18374497 0.79550004 4287009164
0.32658741 0.18905808 0.79833335 4286023047
0.33239019 0.18763627 0.79833335 4285956734
0.33556283 0.18806878 0.79550004 4285824634
0.32660106 0.19267274 0.79833341 4286680721
0.33424693 0.19286701 0.79750001 4285100912
0.33536732 0.19119282 0.79500002 4285232498
0.32596138 0.19741052 0.79850006 4286943379
0.33347204 0.19752109 0.79733342 4286153087
0.33540091 0.19767861 0.79500002 4285627256
0.32476562 0.20315713 0.79550004 4287403672
0.32823482 0.20305522 0.79759997 4286679947
0.33278835 0.20236681 0.79650003 4285429366
0.33564228 0.20321423 0.79550004 4284508523
0.32666948 0.20786427 0.79833335 4287338391
0.3327058 0.20790426 0.79780006 4287141015
0.33651242 0.20806503 0.79750001 4287075224
0.32603425 0.21260898 0.79850006 4287074449
0.33414564 0.21226141 0.79700005 4285952633
0.33577406 0.21300222 0.79566669 4286213236
0.32286718 0.2173472 0.79600006 4286613639
0.32625645 0.21600409 0.79900002 4286745485
0.33386144 0.21650736 0.79800004 4286278255
0.33654165 0.21879084 0.79566669 4286804345
0.32356864 0.22214437 0.79766673 4287402381
0.33350769 0.22257046 0.79740006 4286678663
0.33597669 0.22176944 0.79600006 4286415496
0.32811397 0.22878878 0.79800004 4285165416
0.33205566 0.2263612 0.79699999 4287007882
0.32724383 0.23210013 0.79657143 4283850068
0.33193114 0.2329188 0.79525 4282798146
0.32476857 0.23658395 0.79500002 4284178264
0.32848382 0.23751812 0.79660004 4285494893
0.33162406 0.23685908 0.79575002 4283324747
0.32680592 0.24242249 0.79560006 4286216565
0.32778242 0.2472402 0.79528576 4288844436
0.33292541 0.24781975 0.79600006 4285606450
0.32948893 0.25306985 0.79550004 4287639099
0.33145782 0.25184637 0.79500002 4287312189
0.32931593 0.25617465 0.79500002 4288952902
0.33323857 0.25778458 0.79650009 4288755010
0.33591115 0.25842592 0.79500002 4288031547
0.33358109 0.26173475 0.79633337 4288099131
0.3372874 0.26405519 0.79550004 4286987591
0.33410573 0.26734313 0.79566669 4284575072
0.33720374 0.26765892 0.79650009 4284967008
0.3373 0.27270842 0.79525006 4280175411
0.34182355 0.27395111 0.79550004 4280438583
0.33809042 0.27659506 0.79700005 4280373559
0.34185681 0.27614003 0.79550004 4280439866
0.33840662 0.28029284 0.79500002 4281163843
0.34178334 0.28472739 0.79500002 4282084691
0.33890176 0.2850312 0.79600006 4281229382
0.34203622 0.28710091 0.79550004 4281755987
0.33074033 0.067638427 0.80000001 4285879383
0.33115375 0.07097809 0.80100006 4286744968
0.32857379 0.092563346 0.80000001 4287205265
0.33146632 0.094009012 0.80000001 4286613132
0.33074385 0.096898869 0.80000001 4285494651
0.32790142 0.10244548 0.80100006 4286416780
0.33074573 0.10231791 0.80000001 4285496710
0.32423922 0.10773498 0.80000001 4287074188
0.32790199 0.10678537 0.80100006 4286613898
0.33074823 0.10773723 0.80000001 4285824898
0.32444286 0.11213876 0.80050004 4286811532
0.32808122 0.11243206 0.80257148 4286417032
0.33116472 0.11329824 0.80100006 4285759361
0.32444456 0.11756325 0.80050004 4285891462
0.32822645 0.11824432 0.80266666 4285234305
0.33071557 0.11737343 0.80166668 4285366148
0.3246491 0.12197689 0.80100006 4285891462
0.32809302 0.12254336 0.80233335 4285102460
0.33085659 0.12176975 0.80200005 4284245610
