# .PCD v0.7 - Point Cloud Data file format
VERSION 0.7
FIELDS x y z rgba
SIZE 4 4 4 4
TYPE F F F U
COUNT 1 1 1 1
WIDTH 1089
HEIGHT 1
VIEWPOINT 0 0 0 1 0 0 0
POINTS 1089
DATA ascii
0.29787764 0.10912886 0.75000006 4287453259
0.29847711 0.12665507 0.75150001 4286936684
0.37221172 0.17878303 0.75000006 4289312687
0.30371961 0.19561401 0.75400001 4288847769
0.37420923 0.21458118 0.75300002 4290035381
0.3014366 0.2260927 0.75300002 4286612858
0.37468937 0.23948008 0.75300002 4291150777
0.3731527 0.24392083 0.75400001 4290160285
0.30950153 0.2484739 0.75200003 4287579970
0.3701359 0.24738748 0.75200003 4291471258
0.31118214 0.25022522 0.75100005 4284166955
0.31208697 0.25708815 0.75300002 4280962099
0.36230475 0.27430832 0.75200003 4288922283
0.35457295 -0.014980572 0.75800002 4283190330
0.30804846 0.054629814 0.75500005 4286150012
0.31173506 0.054918937 0.75900006 4286611333
0.33923125 0.052662078 0.75600004 4286613142
0.34632665 0.054861046 0.75800002 4289310136
0.3629061 0.056938145 0.75800002 4285292134
0.368662 0.058927737 0.75700003 4287198842
0.30557147 0.061088879 0.75900006 4285999663
0.37025681 0.060905099 0.75600004 4290689720
0.3035118 0.081651293 0.75900006 4285677625
0.29986534 0.12212982 0.75500005 4284570962
0.30026314 0.12434001 0.75600004 4285360221
0.30066299 0.13065831 0.75700003 4287923323
0.30237123 0.16840917 0.75600004 4288126101
0.30451617 0.19407782 0.75600004 4288323737
0.30571577 0.19278507 0.75900006 4288389530
0.3041319 0.19792621 0.75500005 4285689191
0.30494735 0.20050904 0.75700003 4286411887
0.37486696 0.20375654 0.75900006 4289641912
0.37440416 0.20556672 0.75800002 4289641652
0.37673002 0.21808982 0.75800002 4290101174
0.37459207 0.24279898 0.75700003 4287585622
0.37199873 0.24829 0.75800002 4286140483
0.36953241 0.25041682 0.75500005 4287724656
0.37153718 0.25384408 0.75900006 4289562495
0.36697018 0.26181233 0.75800002 4283788115
0.32454097 0.27945828 0.75700003 4281031750
0.35894376 0.28266296 0.75800002 4280968266
0.3643032 -0.023294523 0.76100004 4279834634
0.37632701 -0.0088461377 0.76000005 4279109890
0.30884197 0.057201099 0.76200002 4283834923
0.31544399 0.055208176 0.76300001 4287400079
0.32413948 0.055280991 0.76400006 4287005838
0.32578486 0.055209063 0.76300001 4286874252
0.33407193 0.05521211 0.76300001 4288783792
0.33658656 0.055285592 0.76400006 4288979887
0.36368552 0.057385378 0.76400006 4284360239
0.36771727 0.059271861 0.7615 4284563526
0.37214935 0.062418438 0.76200002 4288183677
0.37320504 0.065522999 0.76200002 4290164659
0.37483731 0.075767577 0.76100004 4289903283
0.37533626 0.077935264 0.76200002 4289837490
0.30471089 0.08403831 0.76200002 4285742649
0.30431053 0.085989609 0.76100004 4285414200
0.37649789 0.092181422 0.76000005 4289705904
0.37801075 0.098762296 0.76300001 4289179045
0.37858981 0.11550018 0.76400006 4288321417
0.37852857 0.13206546 0.76366669 4288252797
0.37848288 0.13723066 0.76350003 4287530360
0.37827453 0.14233483 0.76300001 4285757033
0.37830767 0.14649081 0.76300001 4286547578
0.37884757 0.15188673 0.76400006 4287403402
0.30516386 0.16686329 0.76300001 4287994518
0.37901798 0.16959822 0.76400006 4287405464
0.37731522 0.17193516 0.76050007 4287866015
0.37759787 0.17516646 0.76100004 4288260773
0.37705654 0.1841837 0.76400006 4285629823
0.307713 0.18990307 0.76400006 4285888367
0.37684804 0.18719395 0.76350003 4285760639
0.3077212 0.1919789 0.76400006 4288389015
0.37713426 0.19045186 0.76400006 4286024065
0.37624416 0.19725376 0.76200002 4287866270
0.30616608 0.20337069 0.76000005 4286478707
0.37678173 0.20064777 0.76300001 4288852910
0.37690586 0.20901574 0.76300001 4289049515
0.37951958 0.22282305 0.76350003 4286088314
0.37984529 0.22717398 0.76400006 4283325514
0.37334839 0.23221427 0.76366669 4282930754
0.37897217 0.23287672 0.76200002 4283326026
0.37287658 0.23711267 0.76250005 4284377423
0.37735146 0.2376775 0.76200008 4285889126
0.37296256 0.24327683 0.76316667 4286408539
0.3761729 0.24138126 0.76250005 4285483069
0.37270269 0.24744666 0.76260006 4286276182
0.37176454 0.25229934 0.76400006 4286474074
0.31872699 0.25877362 0.76400006 4282736198
0.37175977 0.25781989 0.7615 4283187764
0.36793891 0.26250371 0.76000005 4283852369
0.31803459 0.26856413 0.76200002 4281161017
0.36900714 0.26742104 0.76200002 4282738508
0.36911139 0.27165326 0.76200002 4281818437
0.37002745 0.27024394 0.76400006 4282081094
0.3640686 0.27928677 0.76000005 4282738769
0.36706808 0.2758362 0.76200002 4282409290
0.33096209 0.28348982 0.76200002 4281163336
0.35869092 0.28410035 0.76200002 4282087260
0.36245552 0.28171775 0.76100004 4281032517
0.39884117 -0.0089349803 0.76700002 4281217054
0.31834298 0.055352818 0.76500005 4286939014
0.32208085 0.055461489 0.7665 4288519076
0.32871473 0.055354346 0.76500005 4287795613
0.33204651 0.055391628 0.76550007 4287730847
0.33999404 0.055503927 0.76700002 4287927199
0.34252685 0.055577695 0.76800001 4287269271
0.34743929 0.055365682 0.76500005 4287994276
0.35703206 0.057648715 0.76766664 4287990161
0.36267287 0.057718523 0.76850003 4285819506
0.30919427 0.06389384 0.76800001 4286131765
0.36980709 0.061858676 0.76800001 4284568404
0.37229669 0.063199438 0.76733333 4285085753
0.37459967 0.06698823 0.76700008 4287593080
0.37615988 0.072292998 0.76800007 4287395958
0.37764859 0.082577251 0.76666671 4288125844
0.37832358 0.087930299 0.76800001 4287465859
0.37833527 0.091058016 0.76800001 4287399037
0.30590785 0.10094876 0.76500005 4282726965
0.37950653 0.10123143 0.76600003 4289442471
0.38050717 0.10358218 0.76800001 4288061332
0.37465951 0.10786609 0.76900005 4284964172
0.38078064 0.10886926 0.76850003 4288455574
0.37907386 0.11357187 0.76500005 4288387210
0.38054916 0.11192983 0.76800001 4288915610
0.37909722 0.11773109 0.76500005 4287992452
0.37962383 0.12309211 0.76600003 4288845704
0.38010046 0.12012424 0.76700002 4288254083
0.37965691 0.12830076 0.76600003 4288844676
0.38013899 0.12638184 0.76700002 4288910983
0.37482029 0.13713002 0.76900005 4283584573
0.37800956 0.13715144 0.76900005 4285226061
0.37807605 0.14261051 0.76833338 4285757031
0.37489346 0.14759359 0.76900005 4282863685
0.37816101 0.14723724 0.76700008 4285824367
0.37492546 0.15178131 0.76900005 4282534466
0.37681782 0.15274666 0.76850003 4285100390
0.30674553 0.15837346 0.76700008 4287467404
0.37283143 0.15595363 0.76900005 4283917151
0.37972093 0.15743662 0.76566672 4287601040
0.30635309 0.16232604 0.76600003 4287665554
0.37883049 0.16292398 0.76700008 4286549382
0.3075591 0.16608928 0.76900005 4287862932
0.37997758 0.16690627 0.76600003 4286878606
0.37462318 0.17251764 0.76800001 4284247917
0.37677482 0.17242809 0.76750004 4285234809
0.37869906 0.17768806 0.76750004 4285695616
0.37707043 0.18139569 0.76700002 4285300857
0.30971894 0.18905675 0.76900005 4286609266
0.37743381 0.18956862 0.76900005 4285629053
0.37766886 0.19384137 0.76500005 4287076753
0.30899674 0.20733032 0.76700002 4285952363
0.37742782 0.20732871 0.76850003 4285563260
0.37836301 0.21229617 0.76733333 4287010189
0.30657098 0.21955857 0.76600003 4280692767
0.37355345 0.21900254 0.76900005 4283062613
0.37740827 0.21771562 0.76666671 4285102193
0.36714712 0.22268508 0.76837504 4284379509
0.37311774 0.22188085 0.76800001 4281220408
0.37751561 0.22222027 0.76820004 4285101935
0.30622554 0.22760996 0.76500005 4287598985
0.35871229 0.22933233 0.76900005 4284840793
0.36302927 0.22831924 0.76820004 4284774757
0.36691707 0.22730346 0.76739997 4284773999
0.37245512 0.22711936 0.76700008 4283325518
0.37793359 0.22658032 0.76816672 4284838500
0.38019162 0.22967994 0.76900005 4281812274
0.35819125 0.23260014 0.76700002 4280036888
0.36286861 0.23254278 0.76679999 4280168983
0.36756796 0.23211932 0.76725 4280299804
0.37151292 0.23301888 0.7665 4280036120
0.37754527 0.23320052 0.76675004 4282207544
0.38031673 0.23121476 0.76700008 4282272825
0.30840227 0.23806217 0.76500005 4286135608
0.35357344 0.23792334 0.76800001 4282928689
0.35653892 0.2374994 0.76680005 4282010156
0.36201087 0.23737648 0.76662511 4281682219
0.36750871 0.23701632 0.76739997 4280892706
0.37160811 0.23829597 0.7665 4281747752
0.37854099 0.2370199 0.76533335 4283322683
0.34394941 0.24178323 0.76900005 4280499484
0.34714809 0.24182796 0.76900005 4285213982
0.35334235 0.24282146 0.76850009 4286393645
0.35762206 0.24289 0.76850003 4286000681
0.36258617 0.24271558 0.76766664 4286131754
0.36831674 0.24228445 0.76800001 4286070322
0.37091956 0.24189919 0.76566672 4286000421
0.34999219 0.24789193 0.76800001 4287180079
0.35290632 0.24728589 0.76816672 4287444795
0.35797882 0.24742292 0.76833338 4286852917
0.36266989 0.24702522 0.76860011 4286983987
0.36754999 0.24735034 0.76800001 4287180593
0.37047613 0.24762569 0.76600003 4286722863
0.35361436 0.25241843 0.76875007 4291132032
0.35712397 0.2517907 0.76824999 4289225064
0.36343214 0.25479501 0.76900005 4287902781
0.36756185 0.25266272 0.76871437 4287771191
0.37131041 0.2534107 0.76750004 4286729029
0.36347386 0.25691798 0.76900005 4287903035
0.36562827 0.25696063 0.76900005 4288296764
0.37276712 0.25798309 0.76733333 4285880656
0.32084018 0.26257813 0.76900005 4281225271
0.35375914 0.2624082 0.76820004 4286339670
0.35698995 0.2630491 0.76866674 4286935404
0.36751208 0.26324248 0.76700008 4284769362
0.37039062 0.2608172 0.76750004 4284567619
0.36969855 0.26734579 0.76800001 4281882685
0.36803532 0.27760768 0.76700002 4282017354
0.32751283 0.28172678 0.76900005 4281556038
0.36362448 0.28425437 0.76800001 4281296714
0.36525854 0.28180441 0.76700002 4281493322
0.35780585 0.28588486 0.76700002 4281887826
0.36861038 -0.021482678 0.77000004 4279966218
0.38814107 -0.011067642 0.77100003 4281217831
0.34701216 0.055797204 0.77100003 4288256937
0.35331869 0.057892777 0.77100003 4288517276
0.35998002 0.060222495 0.77400005 4285472039
0.36291838 0.060188062 0.77350008 4285669674
0.36851999 0.06083234 0.77266675 4284887094
0.3706755 0.063224405 0.77200007 4284827464
0.31160897 0.067538276 0.77400005 4285410608
0.37268108 0.06739638 0.77175003 4284040772
0.37549883 0.068383537 0.77100003 4284493873
0.31120527 0.071639262 0.77300006 4285352522
0.37329724 0.072747424 0.773 4284370249
0.3761588 0.072692588 0.77233338 4284822836
0.3738254 0.0776757 0.77333337 4284700240
0.37694776 0.077876098 0.77175003 4285021241
0.37486953 0.082294233 0.77400005 4285227867
0.37792793 0.082549065 0.77300006 4284824374
0.37330553 0.087153293 0.7736668 4284171581
0.37799776 0.087537289 0.77383333 4284758580
0.31120121 0.093627602 0.77300006 4281346853
0.36298752 0.093751222 0.77350008 4286607478
0.37370816 0.092324317 0.77300006 4283846725
0.37795344 0.092828497 0.77240002 4284960324
0.31160364 0.09584561 0.77400005 4280623644
0.36342725 0.096571408 0.77366668 4287332485
0.37336931 0.096870147 0.773 4284043590
0.37813058 0.097495332 0.77185714 4284897100
0.3643114 0.10326552 0.77400005 4286674287
0.36749685 0.1032761 0.77400005 4286081119
0.37336856 0.10174783 0.77340007 4284109123
0.37766582 0.10249971 0.77260005 4285227092
0.3808465 0.10319687 0.77300006 4285488980
0.36346212 0.10776869 0.77366668 4287134321
0.36699852 0.10708071 0.77366668 4287068268
0.37423271 0.10729949 0.77250004 4283055404
0.37671855 0.10666424 0.77033335 4285160526
0.38108012 0.10691247 0.77200007 4286344802
0.36330566 0.11223884 0.77359998 4286476386
0.3668842 0.11321764 0.77375007 4287002985
0.37314871 0.11373264 0.77350008 4284634693
0.37720442 0.11248853 0.77200007 4284504135
0.38072786 0.11259816 0.77266669 4285683528
0.36330643 0.11901927 0.77400005 4286868566
0.36754906 0.11693475 0.77400005 4287198565
0.37239325 0.11785746 0.773 4285488718
0.37747478 0.11780605 0.77250004 4284241734
0.38042712 0.11774725 0.77200001 4286012494
0.35884368 0.12312616 0.77350008 4286869083
0.36308458 0.12209291 0.77350008 4286538313
0.36773488 0.12224517 0.77300006 4286470981
0.37253273 0.12157133 0.77325004 4285551683
0.37680152 0.12297251 0.77199996 4284306498
0.38069722 0.12202286 0.77250004 4285486150
0.35913101 0.12590043 0.77333337 4287067749
0.36241835 0.12756036 0.77300012 4286341967
0.36757538 0.12698384 0.77300012 4286666816
0.372327 0.12739067 0.77350003 4285679151
0.37630281 0.1282454 0.77216673 4284633149
0.38064662 0.12724842 0.77233338 4285682244
0.35782218 0.13257307 0.77350008 4286542433
0.36222503 0.13265026 0.77383345 4286869340
0.36702919 0.13249065 0.77275002 4286203953
0.37185305 0.13270062 0.77260005 4285744174
0.37677091 0.13224109 0.77220011 4284436797
0.38026935 0.13235566 0.77149999 4284957236
0.35383114 0.13789676 0.77399999 4286344024
0.35714203 0.13808563 0.77328581 4287067492
0.36344168 0.13922493 0.77333337 4286405964
0.36767796 0.13793963 0.77237505 4286995271
0.37248802 0.13728893 0.77171433 4285744947
0.37786204 0.1373252 0.77000004 4284632638
0.34961602 0.14418529 0.77400005 4287199851
0.35173699 0.14419448 0.77400005 4287660404
0.35870093 0.14299406 0.77300006 4286603863
0.36248177 0.14283076 0.77200001 4286138684
0.36723909 0.14264616 0.77083331 4286071089
0.37251526 0.1426637 0.77075005 4284891699
0.37605038 0.14220162 0.77000004 4283783238
0.34917343 0.14609863 0.77300006 4286477158
0.35301363 0.14694178 0.77366668 4286675313
0.35741749 0.147727 0.77399999 4286151542
0.36214238 0.14678277 0.77350008 4285622882
0.36703339 0.14695586 0.77333337 4286874490
0.37232122 0.14718431 0.77250004 4286020981
0.37751225 0.14780162 0.77000004 4284771424
0.30953673 0.15457447 0.77400005 4287531395
0.35748109 0.15290929 0.77385724 4285694857
0.36237252 0.15331081 0.77300006 4286024077
0.36738592 0.15266247 0.77228576 4286220941
0.37252024 0.15225926 0.77157152 4284706927
0.37755397 0.15304419 0.77000004 4284574304
0.38017157 0.15221019 0.77100003 4286350456
0.30874002 0.15626834 0.77200001 4287598218
0.35393563 0.15893005 0.77400005 4285563017
0.35772106 0.15769866 0.77300006 4285366666
0.36221889 0.15737611 0.77125007 4285695371
0.36736989 0.1573128 0.77180004 4285694856
0.37168351 0.15844247 0.77099997 4284640878
0.37720636 0.15772063 0.77066678 4283587410
0.38046318 0.15756519 0.77149999 4285100904
0.35396045 0.16314 0.77400005 4283787380
0.35701555 0.1628902 0.77271426 4285695117
0.3624292 0.16172549 0.77300006 4286089614
0.36697635 0.16161782 0.773 4286221200
0.37251338 0.16194344 0.77266675 4285890686
0.37724891 0.16262172 0.77066666 4283522133
0.38024491 0.16061489 0.77100003 4287271820
0.35394523 0.16708513 0.77275002 4283656055
0.35793951 0.16829875 0.77240002 4284051070
0.36291769 0.16701952 0.77357149 4285695116
0.36761364 0.16734059 0.77350003 4286154635
0.37105966 0.16747598 0.77400005 4286614669
0.37809214 0.16791756 0.77083331 4283983972
0.35789666 0.17246115 0.77316666 4284248448
0.36303148 0.1724091 0.77275002 4284117374
0.36670566 0.17216466 0.77150005 4285300872
0.37223655 0.17306793 0.77300006 4284576631
0.37538302 0.17173366 0.77400005 4283062873
0.35302705 0.17820834 0.77360004 4286079593
0.35722223 0.17701851 0.77316672 4286277488
0.3630681 0.17749117 0.77350003 4284968309
0.36766934 0.17722543 0.77174997 4284972164
0.37301701 0.17792761 0.77214283 4283655784
0.37696737 0.17834832 0.7705 4283984742
0.35269076 0.18297006 0.77325004 4285812821
0.35732245 0.18245512 0.77359998 4288055950
0.36282647 0.18358117 0.7732501 4285623152
0.36703965 0.18280199 0.77200001 4284906629
0.37206483 0.18269737 0.7713334 4283655785
0.37745473 0.18294996 0.77066678 4284708721
0.31071454 0.18652606 0.77150005 4285223762
0.34987724 0.1883951 0.77400005 4288705145
0.35255656 0.18693109 0.77366668 4287664787
0.35753307 0.18697222 0.77366668 4284963937
0.36244431 0.18732698 0.77350003 4285362552
0.36743754 0.18719755 0.77275002 4284709766
0.37222877 0.1874187 0.77157152 4283787371
0.37670666 0.18732294 0.77020001 4284905844
0.35341534 0.19252016 0.77350008 4285161317
0.35699669 0.19247054 0.77316672 4285754741
0.36231151 0.19250713 0.77311116 4284840581
0.36776209 0.19246216 0.77162498 4284249473
0.37288347 0.19218563 0.77133346 4282997854
0.37738001 0.1932116 0.77100003 4285168759
0.35422534 0.19792823 0.77400005 4285827213
0.35720012 0.19783072 0.77350008 4285301642
0.3620801 0.19762844 0.77250004 4284447109
0.36719343 0.19755895 0.77200001 4284249733
0.3717213 0.19773614 0.77250004 4284511097
0.37676612 0.19763012 0.77183336 4284116329
0.35425541 0.20109674 0.77400005 4285893262
0.35771939 0.20236965 0.77162498 4285893009
0.36319658 0.20186126 0.77250004 4284643460
0.36775079 0.20257184 0.77260005 4283986817
0.37237149 0.20215468 0.77240002 4284182131
0.37738046 0.20212932 0.77150005 4285037176
0.35327193 0.20954111 0.77400005 4286023821
0.35722789 0.20783874 0.77380002 4285564045
0.36146605 0.20731774 0.77325004 4284512646
0.3667407 0.20774329 0.77362514 4284184194
0.37253022 0.2074551 0.77225 4283852906
0.3766754 0.20678228 0.77250004 4284905077
0.31142509 0.21105544 0.77300006 4287533192
0.35265198 0.21211123 0.77375007 4285957770
0.35735899 0.212624 0.77350008 4285432201
0.36079314 0.21173999 0.77400005 4285564305
0.36701816 0.21271081 0.77260005 4284314751
0.37242603 0.21223144 0.77133328 4283786856
0.37761405 0.21274729 0.77166671 4285102451
0.35321867 0.21820505 0.77320004 4285234048
0.35770765 0.2178721 0.77237505 4284642942
0.36262301 0.21722387 0.77185714 4284315007
0.36697197 0.21734709 0.77100009 4284380026
0.37236974 0.21733198 0.77162498 4284115308
0.37793261 0.21708429 0.77100003 4285102451
0.30818498 0.22280245 0.77000004 4282929731
0.35285652 0.22293977 0.77275008 4284970876
0.35714072 0.22299238 0.77275002 4284642170
0.36207402 0.22279881 0.77183336 4284445820
0.37218028 0.22256887 0.77050006 4284180839
0.37837905 0.22147018 0.77000004 4285168242
0.30960649 0.22697586 0.77350008 4287270789
0.34383294 0.22636546 0.77400005 4285890428
0.34705386 0.22746116 0.77400005 4285824890
0.35238281 0.22744945 0.77300006 4285431163
0.3572596 0.22755346 0.77112496 4284774002
0.36229709 0.22634584 0.77066666 4284576631
0.34317705 0.23129942 0.77399999 4282337595
0.34738824 0.23293909 0.77357149 4281483309
0.35253298 0.23240145 0.77255559 4281812788
0.35669193 0.23214898 0.77149999 4279378447
0.31201297 0.23874967 0.77400005 4288707438
0.34311476 0.23826255 0.77366668 4279903509
0.34728208 0.23740906 0.77183342 4280103706
0.352254 0.23722638 0.77100003 4279445006
0.31297415 0.24416055 0.77100003 4287711561
0.34336337 0.24214806 0.77250004 4281812518
0.34782556 0.24229871 0.77050006 4286137400
0.35095784 0.24229304 0.77033335 4286661432
0.31513304 0.24839735 0.77100003 4287906884
0.34364074 0.2461936 0.77300006 4285215791
0.347572 0.24759397 0.77120006 4287310638
0.35729969 0.24652314 0.77000004 4287049268
0.31812108 0.25329542 0.77300006 4287646021
0.34908006 0.25158125 0.773 4287573297
0.35085189 0.25249431 0.7713334 4290736244
0.35955912 0.25292236 0.77000004 4293368995
0.36300281 0.25208351 0.7705 4288893015
0.365978 0.25091812 0.77000004 4287508277
0.32120344 0.25869307 0.77000004 4286545518
0.34895828 0.25779566 0.77250004 4286458154
0.35266086 0.25698704 0.77200007 4286523951
0.35787955 0.25776353 0.77083343 4287049268
0.36208996 0.2582621 0.77060002 4287443253
0.36757264 0.2587426 0.77000004 4288297019
0.37108576 0.2574783 0.77025002 4288368719
0.34925616 0.26222163 0.773 4287246129
0.35161608 0.2625474 0.77225006 4285547327
0.35972053 0.26142097 0.77000004 4286265398
0.3627094 0.26302257 0.77079999 4285745732
0.36727244 0.261574 0.77000004 4285805870
0.32234293 0.26695657 0.77250004 4281356084
0.34825647 0.26646554 0.77300006 4289311905
0.35195586 0.26608446 0.77166671 4289970095
0.35823774 0.26895773 0.77350008 4279843619
0.3623006 0.26711985 0.77160007 4285890925
0.36769518 0.26779738 0.77200001 4283459407
0.32259548 0.27031535 0.77300006 4281749817
0.32521489 0.27495477 0.77400005 4281228352
0.35732681 0.271698 0.77375007 4280503086
0.36287349 0.27243444 0.77400005 4280438060
0.36764356 0.2724545 0.77375001 4280701231
0.37057972 0.27256691 0.77075005 4281490749
0.32356653 0.27565408 0.77000004 4281424189
0.35711303 0.27689639 0.77383333 4280702265
0.36268115 0.27755871 0.77333337 4280636726
0.36686057 0.2771906 0.77199996 4280571700
0.37008134 0.27546921 0.77300006 4281096505
0.36423263 0.28426912 0.77400005 4280900922
0.36646938 0.28241754 0.77266669 4280966715
0.33311737 0.28503472 0.77200001 4281229897
0.35409334 0.28796768 0.773 4280112701
0.3577303 0.28637907 0.77233338 4280900932
0.36249089 0.28583953 0.77250004 4281099077
0.31702432 0.058326676 0.77700001 4283440165
0.34216666 0.058306783 0.7766667 4286211698
0.35334551 0.058415119 0.77800006 4288053645
0.31411046 0.060276546 0.77500004 4285737781
0.35417846 0.060485952 0.77750003 4285207841
0.35716775 0.062782198 0.77650005 4285603365
0.36233068 0.063277505 0.77540004 4285669927
0.3672812 0.063334905 0.77600002 4285539111
0.37105668 0.064520255 0.77500004 4285610298
0.35812968 0.067383267 0.77800006 4285735205
0.36244816 0.067830339 0.77700001 4285735462
0.36771411 0.067698404 0.77780002 4285538597
0.3708317 0.068110645 0.77600002 4285409834
0.35973197 0.072131194 0.77800006 4285080101
0.36303869 0.072160043 0.7782501 4285407269
0.36871743 0.072239146 0.77900004 4285670181
0.3709625 0.072060317 0.77700007 4285211170
0.3128148 0.075167395 0.77700001 4286404179
0.35890791 0.077453911 0.77850008 4281736993
0.36181557 0.078331791 0.77880007 4281081630
0.36852524 0.077652797 0.7772857 4285342757
0.371737 0.077683836 0.77525002 4284425250
0.35383061 0.082773626 0.77900004 4287597201
0.35701075 0.082533009 0.7766667 4280426019
0.36177653 0.082419373 0.77550006 4280426786
0.36740014 0.082501993 0.77616668 4284754731
0.37228176 0.082418591 0.77525008 4284100395
0.37748107 0.081355229 0.77500004 4284429360
0.35793662 0.087346256 0.778 4284632147
0.36248684 0.087846659 0.77700001 4285028702
0.36728102 0.087734893 0.77588892 4286471261
0.37198329 0.088387258 0.7753334 4284893251
0.31321436 0.092125505 0.77800006 4281741354
0.35278621 0.093332365 0.77900004 4285422944
0.35731959 0.09241683 0.77787507 4285817448
0.36232892 0.09241204 0.77550006 4286672500
0.36841348 0.093013451 0.77600002 4286737773
0.37231782 0.093376316 0.77600002 4285554520
0.31281132 0.098322116 0.77700001 4281544748
0.3538557 0.09650299 0.77900004 4286146922
0.35669491 0.097213328 0.77900004 4287135360
0.36179388 0.097421832 0.77775007 4287202442
0.36842701 0.097224854 0.77600002 4286739315
0.3720997 0.097360387 0.77700001 4286476138
0.379673 0.098192818 0.77500004 4285354310
0.30990651 0.10436796 0.77500004 4284168497
0.35734528 0.10296534 0.77787501 4285421901
0.36258027 0.10209038 0.77712506 4286938231
0.36819768 0.10031906 0.77550006 4287200376
0.37234721 0.10293114 0.77525008 4285883224
0.35282075 0.10917723 0.77900004 4287201400
0.3572222 0.10785663 0.77700001 4286345831
0.36171916 0.10738192 0.77600002 4286279783
0.36953086 0.10881297 0.77600002 4287199851
0.37248519 0.10770316 0.7755 4286212699
0.34892702 0.11198518 0.77900004 4287134577
0.35260177 0.11227487 0.77850008 4287399552
0.35708258 0.11202538 0.77666664 4287004279
0.36142769 0.11290098 0.7753334 4286476901
0.36930507 0.11190046 0.77550006 4286871142
0.37250325 0.11191353 0.77550006 4286344799
0.37546703 0.11290839 0.77500004 4284634693
0.31150767 0.11968053 0.77900004 4285154615
0.34785762 0.11716531 0.77880007 4286079061
0.35296005 0.11766893 0.77749997 4286474588
0.35726658 0.11685059 0.77571434 4286869341
0.3622272 0.11718209 0.77580005 4286408788
0.36803293 0.11919054 0.77500004 4287000413
0.31150824 0.12179124 0.77900004 4284239680
0.34328592 0.1239452 0.77900004 4287334277
0.34796274 0.12311206 0.77900004 4287399810
0.35301492 0.12260232 0.77700001 4286871404
0.35736337 0.12205837 0.77566671 4286211152
0.36059457 0.12126483 0.77500004 4286144071
0.3496739 0.126076 0.77900004 4287399809
0.35245326 0.12754783 0.77760005 4286938743
0.35673594 0.12804985 0.77637506 4286806125
0.34905118 0.13290203 0.77875006 4286608488
0.35241655 0.13282143 0.77716666 4286936936
0.3561393 0.13263838 0.77600002 4287660658
0.34842283 0.13761267 0.77850008 4286541921
0.35143781 0.13714194 0.77575004 4286343767
0.36172703 0.13705605 0.77500004 4286802523
0.36538741 0.13619433 0.77600002 4284959545
0.31132126 0.14280897 0.77850008 4286935147
0.34691843 0.14285775 0.77687508 4287002471
0.35240805 0.14201599 0.77550006 4286936421
0.35643771 0.14334762 0.77500004 4287331954
0.31152546 0.14712518 0.77900004 4285547327
0.34355652 0.14705896 0.77825004 4286673249
0.34715351 0.14810641 0.77700007 4287266416
0.35137445 0.1486827 0.77550006 4286675826
0.35645321 0.14650641 0.77500004 4287070587
0.36285481 0.14864758 0.77500004 4287205771
0.36925769 0.14868632 0.77500004 4287337356
0.34337178 0.151429 0.77900004 4287331437
0.34932411 0.15231791 0.77800006 4287071613
0.35252532 0.15185128 0.7766 4286744196
0.35527268 0.15320887 0.77700001 4285956486
0.362867 0.15075494 0.77500004 4286418062
0.37140977 0.15080912 0.77500004 4286548621
0.34339777 0.15777625 0.77900004 4286810503
0.34726825 0.15808089 0.77742863 4286680203
0.35244 0.15695401 0.77600002 4286088586
0.34393418 0.16281019 0.77775002 4285891721
0.34719026 0.16236113 0.77550006 4285497222
0.3521283 0.16219734 0.77560008 4285431944
0.36936292 0.16345268 0.77500004 4286484112
0.34239855 0.16720949 0.77759999 4286154892
0.34733286 0.16672733 0.77719998 4286220945
0.35140029 0.16762042 0.7753334 4284707969
0.37282568 0.16770338 0.77500004 4285825153
0.37582931 0.1677293 0.77500004 4284114529
0.34287989 0.17230041 0.77766669 4285563529
0.34769046 0.17207079 0.77649999 4285958030
0.35272551 0.17301176 0.77583337 4285300358
0.37372088 0.17193593 0.77500004 4284576375
0.34390238 0.17755505 0.77750003 4285361267
0.34817153 0.17758092 0.77750003 4286285966
0.35110369 0.17675941 0.7753334 4285425775
0.31231144 0.18328267 0.77550006 4285422170
0.34414187 0.18084405 0.778 4286009946
0.34758705 0.1827836 0.77714288 4287067002
0.35043263 0.18238391 0.7753334 4284359727
0.36213595 0.1814 0.77525008 4285287765
0.3467041 0.18761411 0.77714294 4286073940
0.35245597 0.18759981 0.77500004 4287000693
0.35673597 0.1886905 0.77500004 4285758591
0.34360042 0.19379303 0.77900004 4286614416
0.34690571 0.19222753 0.77683336 4286413952
0.35142654 0.19234361 0.77500004 4287400333
0.34424257 0.19567136 0.778 4285628292
0.34795308 0.19774839 0.77771431 4286812309
0.35161892 0.19772209 0.77580005 4285892235
0.3471393 0.20262487 0.77785724 4286746771
0.35252103 0.2028112 0.77580005 4286221200
0.34747672 0.20732021 0.7778334 4286549392
0.35222182 0.20750105 0.77566665 4286549907
0.35521284 0.20585391 0.77600002 4286221200
0.3633827 0.20991883 0.77500004 4284184196
0.31264532 0.21398634 0.77600002 4287336327
0.34352493 0.21170771 0.77850008 4285365892
0.34715477 0.21240087 0.77700001 4285826183
0.35185778 0.21416304 0.77550006 4286089097
0.36286554 0.21353556 0.7753334 4284446338
0.36555916 0.21206543 0.77500004 4284446852
0.31306025 0.21637708 0.77700001 4287073923
0.34379509 0.21716085 0.77900004 4285496706
0.34713277 0.21765977 0.77683336 4285694081
0.35190842 0.21721941 0.77633333 4285825924
0.33956403 0.22350225 0.77900004 4285626744
0.3426908 0.22301431 0.77716666 4285100917
0.34646025 0.22272496 0.77600002 4285430651
0.35067955 0.22461069 0.77500004 4285693826
0.33489496 0.22848772 0.77800006 4279245070
0.33776063 0.22723041 0.7782858 4282074171
0.34164965 0.22757085 0.77680004 4281548086
0.34856087 0.22670665 0.77500004 4286022014
0.35070506 0.22673211 0.77500004 4285825405
0.33782703 0.23254919 0.77725005 4285298027
0.34077445 0.23227268 0.77500004 4284903012
0.31360829 0.23785998 0.77800006 4283318326
0.3377769 0.23768599 0.7778334 4286087288
0.34190384 0.23677933 0.77583337 4285955187
0.31579635 0.24425128 0.77800006 4287381824
0.33762619 0.24310993 0.77816671 4283063873
0.34106129 0.24315001 0.77700007 4280762399
0.33703575 0.24751437 0.77749997 4287130959
0.34161839 0.24806224 0.77566671 4286279253
0.33834621 0.25240284 0.77740002 4288300354
0.34230477 0.253162 0.77560008 4288433742
0.3465521 0.25264168 0.7753334 4287113776
0.33844107 0.25622445 0.778 4288229174
0.34187368 0.25843155 0.77740002 4287967285
0.34667224 0.25749084 0.77560008 4286917165
0.32713476 0.26388192 0.77900004 4283065163
0.34335008 0.26246667 0.77833337 4286983728
0.34683204 0.2618272 0.77580005 4287115058
0.35120279 0.26078275 0.77500004 4287245872
0.34442264 0.26627609 0.77900004 4287667337
0.34717065 0.26630929 0.77640003 4283193416
0.3441084 0.27344021 0.77800006 4280372786
0.34780294 0.2738497 0.77900004 4280109613
0.35293418 0.27318144 0.77740008 4280306473
0.3561849 0.27190536 0.77600002 4280107557
0.36010674 0.27378976 0.77500004 4280306989
0.36875769 0.27183202 0.77500004 4280700717
0.32827064 0.27997401 0.77600002 4281687621
0.34460843 0.27701655 0.77900004 4285240958
0.34786272 0.27707648 0.77900004 4280701754
0.35210553 0.27730539 0.77633333 4280439605
0.36019996 0.27808338 0.77500004 4280899389
0.34932029 0.28177586 0.77800006 4281295174
0.3527824 0.28221512 0.77600002 4281887571
0.35701346 0.28288108 0.77540004 4284122480
0.36183414 0.28283527 0.77516675 4282149201
0.33350572 0.28506154 0.77800006 4280966211
0.34355125 0.28973529 0.77850008 4281231183
0.34762987 0.28748038 0.77800006 4280376382
0.35192665 0.28716066 0.77685726 4280638271
0.35604766 0.28658554 0.77500004 4281295689
0.36960497 -0.026021114 0.78100002 4279966218
0.37339637 -0.019647248 0.78000003 4279900425
0.32224149 0.058701612 0.78200006 4283573035
0.33262247 0.058664814 0.78150004 4284632148
0.33742282 0.058578905 0.78033334 4286540660
0.35212827 0.058563311 0.78000003 4287066750
0.31735241 0.063019991 0.78300005 4285999663
0.34231842 0.061871927 0.78183335 4285667878
0.34620357 0.061809376 0.78100002 4285667623
0.35374478 0.062952109 0.78200006 4285471524
0.35516652 0.062954426 0.78200006 4285537318
0.34439933 0.065882057 0.78333336 4285603878
0.34789395 0.068065509 0.78399998 4285604134
0.3529737 0.06778378 0.78185719 4285603877
0.35745737 0.069140077 0.78000003 4285604133
0.34896478 0.072315961 0.7840001 4284031012
0.35252798 0.072259448 0.78180009 4284489253
0.35718811 0.072597608 0.78080004 4284030497
0.36705524 0.072327733 0.78000003 4285735462
0.31402212 0.077570692 0.78000003 4284625970
0.31522942 0.079990253 0.78300005 4285479993
0.34142414 0.078583337 0.78300005 4281543207
0.34774581 0.076845661 0.78325009 4283187782
0.35225013 0.078048125 0.78157151 4285227625
0.35712028 0.077146523 0.78157145 4281608749
0.36386234 0.076551944 0.78000003 4283048482
0.36650872 0.076942511 0.78033334 4284752676
0.34311023 0.082608633 0.78360003 4282787621
0.3476111 0.082160734 0.78333336 4284176218
0.35131803 0.082928196 0.78050005 4285296501
0.34454396 0.088377059 0.78200006 4283310624
0.34718513 0.087129511 0.78220004 4284239182
0.35253978 0.087199159 0.7808333 4285950320
0.34334198 0.093001179 0.78271431 4285420619
0.34709975 0.092061237 0.78175008 4284238920
0.35216925 0.09027797 0.78000003 4285290589
0.3425726 0.097954847 0.78233337 4285749320
0.35304371 0.098076351 0.78033334 4287329905
0.35857746 0.098751768 0.78000003 4287334793
0.36071089 0.098757006 0.78000003 4286941063
0.31442168 0.10094418 0.78100002 4281413160
0.34371722 0.10221972 0.78250003 4285285933
0.3534821 0.10197822 0.78050005 4286075717
0.3127057 0.10848988 0.78200006 4285349935
0.34336165 0.10724892 0.78271431 4286338625
0.34581941 0.10824318 0.78000003 4286735956
0.35326597 0.10614387 0.78000003 4285553225
0.31270599 0.11272582 0.78200006 4286795072
0.33834401 0.11267946 0.7840001 4286405962
0.34281468 0.11287364 0.7828334 4286866256
0.34653822 0.11282772 0.78000003 4287065952
0.31190681 0.11666411 0.78000003 4286466879
0.33479333 0.11621661 0.78400004 4284364332
0.33777931 0.11720944 0.78350002 4286407254
0.3423849 0.11697003 0.78183341 4286405196
0.34669885 0.11851948 0.78033334 4286407257
0.35009882 0.11777272 0.78000003 4284691758
0.31190887 0.12406108 0.78000003 4284832847
0.33906841 0.12047464 0.78400004 4287071358
0.34203726 0.12197296 0.78162503 4287202689
0.34584996 0.1219937 0.78000003 4287465348
0.31310934 0.12665989 0.78300005 4284570962
0.33886683 0.12783363 0.78350008 4287530880
0.34240738 0.12757234 0.78183341 4287334018
0.34715152 0.12736909 0.78049999 4287268480
0.35012928 0.12835449 0.78000003 4287202173
0.33791599 0.13212386 0.78375006 4286541663
0.34271049 0.1319257 0.78250003 4286806126
0.34673038 0.13215414 0.78000003 4287004022
0.31271717 0.13921329 0.78200006 4287793795
0.34284624 0.13728252 0.78277779 4286936166
0.34589577 0.13786691 0.78000003 4287398517
0.31192106 0.14308545 0.78000003 4283909696
0.337834 0.14270931 0.78350008 4286802776
0.34244862 0.14242113 0.78183341 4286541148
0.34590644 0.14104265 0.78000003 4287660916
0.3119278 0.14942853 0.78000003 4285876806
0.33895069 0.14658456 0.78260005 4286144330
0.34157073 0.14809737 0.78100002 4286080340
0.31213176 0.15269764 0.78050005 4286014047
0.33900073 0.15286015 0.78283334 4286542951
0.34239629 0.15303008 0.78000003 4286938223
0.34724063 0.15279411 0.78050005 4287070327
0.33813214 0.15720394 0.78260005 4286810246
0.34128127 0.1573959 0.78066665 4287007110
0.3474769 0.15607357 0.78100002 4287006336
0.33811215 0.16195285 0.78400004 4286679949
0.34130991 0.16251437 0.78150004 4286614158
0.33859897 0.16740473 0.78260005 4286154634
0.34004268 0.16664959 0.78100002 4286417035
0.31570137 0.17358801 0.78400004 4288060311
0.3385272 0.17182276 0.78140008 4285892236
0.31557831 0.17776863 0.78366679 4287334789
0.33867684 0.17762952 0.78266668 4286876303
0.34086385 0.17764631 0.78080004 4284898661
0.3141138 0.18117036 0.78000003 4285880151
0.33787817 0.18201566 0.78325009 4284827726
0.341748 0.18274833 0.78079998 4287593344
0.33812317 0.1874613 0.78375006 4286604137
0.3427214 0.1873602 0.7812857 4285351758
0.33462551 0.19471875 0.78300005 4288191644
0.33749357 0.19267417 0.78328574 4286214772
0.34164742 0.19210938 0.78085721 4286345846
0.31711408 0.19863617 0.78200006 4288389530
0.33775648 0.19787192 0.78275007 4286811793
0.34236932 0.19792926 0.78200006 4286220429
0.31712854 0.20182499 0.78200006 4288585625
0.33896765 0.20220724 0.78300005 4287206553
0.34271932 0.20255382 0.78112507 4286482572
0.3177574 0.20647398 0.78350008 4286017386
0.34302127 0.20810775 0.78233337 4286415750
0.33926511 0.21301258 0.78350008 4283445814
0.34162119 0.21249557 0.78150004 4285494136
0.31508738 0.21989851 0.78200006 4282600252
0.3387455 0.21799138 0.78220004 4286284421
0.34223655 0.21738482 0.78116673 4285232506
0.3348434 0.22459045 0.78300005 4285429359
0.33722302 0.22233722 0.78142864 4285363316
0.33401439 0.22805043 0.78266668 4281613616
0.33270401 0.23226115 0.78214282 4285561198
0.3357985 0.23333868 0.78000003 4283455567
0.31480086 0.23664606 0.78100002 4283649603
0.31599379 0.23541635 0.78400004 4286612858
0.33227712 0.23747838 0.78237504 4284311132
0.33583188 0.23653804 0.78000003 4279573782
0.31740105 0.24337079 0.78200006 4286659126
0.33271217 0.2415833 0.78266668 4279970581
0.33574903 0.24263714 0.78133339 4282800707
0.31879044 0.2491634 0.78000003 4287972678
0.32040456 0.2482975 0.78400004 4287642685
0.33327958 0.24714454 0.78216672 4286142775
0.32180187 0.25410345 0.78200006 4288497734
0.33395457 0.25287428 0.78275001 4288500571
0.33601946 0.25256014 0.78000003 4287901496
0.32378283 0.25717294 0.78150004 4287512636
0.32616988 0.25950506 0.78200006 4286133296
0.33693576 0.25749853 0.78200006 4289817204
0.32898307 0.26218027 0.78350008 4286076748
0.33821648 0.262389 0.78180009 4287518295
0.34156731 0.26334706 0.78000003 4286396728
0.32780772 0.26760602 0.78050005 4281226037
0.33128843 0.26764426 0.78366679 4282342980
0.33660391 0.26550978 0.78350008 4284638552
0.34191975 0.26771188 0.78233337 4284444764
0.34578478 0.26945579 0.78200006 4280039199
0.32933766 0.2731148 0.78400004 4281620538
0.34191656 0.2720153 0.78157145 4280240684
0.34863764 0.27132004 0.78100002 4280370729
0.35344034 0.27174568 0.78200006 4280040992
0.35579976 0.27111146 0.78000003 4280106273
0.32923633 0.27745599 0.78100002 4281556031
0.33074075 0.27782956 0.78200006 4281293886
0.34244353 0.27724314 0.78100002 4282017357
0.34943756 0.27960834 0.78000003 4280702524
0.35152984 0.27533841 0.78000003 4280044331
0.3329767 0.28217074 0.78200006 4281227582
0.33580703 0.28383183 0.78350008 4280703038
0.34316951 0.28162366 0.78300005 4282741080
0.34740338 0.28206861 0.78220004 4282610007
0.33806592 0.28729731 0.78100002 4281756239
0.34371641 0.28749138 0.78275001 4283992172
0.34595239 0.28660396 0.7816667 4280374840
0.32814807 0.059001777 0.78600001 4284037697
0.33176383 0.059077092 0.78700006 4284302156
0.3215121 0.061287217 0.78800005 4285538860
0.3343229 0.062354948 0.78800005 4285800486
0.33773896 0.062198881 0.78600001 4285800487
0.31937847 0.065557212 0.78800005 4286328114
0.33474791 0.065640606 0.78900003 4285866534
0.33760273 0.067707829 0.7881667 4285538340
0.3420155 0.067845456 0.78662503 4285407268
0.35118431 0.065318242 0.78500003 4285603109
0.33831945 0.072767846 0.78900003 4283180065
0.34266663 0.072987348 0.78750008 4280556570
0.34670866 0.073146045 0.7853334 4282130208
0.33432788 0.078367718 0.78800005 4282786584
0.33796024 0.077686906 0.78650004 4281738012
0.34230626 0.076108404 0.78666669 4280294938
0.34692156 0.077015385 0.78500003 4283847509
0.31643653 0.083492085 0.78600001 4285545782
0.33282945 0.081061579 0.78825009 4283245590
0.33793229 0.081868701 0.78642863 4283310873
0.34160474 0.084724516 0.78750002 4282850322
0.34799427 0.081271619 0.78500003 4287007116
0.31744224 0.088029191 0.78850007 4285545528
0.33804238 0.088371955 0.78833342 4284754461
0.34238735 0.087852649 0.78683347 4283572247
0.31603271 0.090827741 0.78500003 4283513912
0.33475947 0.092363723 0.78900003 4285149991
0.33765364 0.092278615 0.78825009 4285148707
0.34107053 0.092047676 0.78625 4284885792
0.3188343 0.097415946 0.78666669 4280820766
0.3342275 0.097708613 0.78900003 4285545008
0.33814195 0.097451054 0.7868889 4285020461
0.31683728 0.10385184 0.78700006 4282596663
0.33476856 0.10412373 0.78900003 4281878310
0.33812454 0.10277525 0.78683335 4283255082
0.34160969 0.10254164 0.78500003 4285023273
0.33434734 0.10719392 0.78800005 4283389748
0.33745322 0.10770845 0.78587496 4285223479
0.34161898 0.10892585 0.78500003 4285877818
0.33324066 0.11244818 0.78740007 4284901452
0.33692533 0.11267808 0.78525007 4287395426
0.33307824 0.11731842 0.78666669 4285356621
0.33565044 0.11864389 0.78600001 4288057992
0.33457753 0.12222528 0.78850007 4287663755
0.33800867 0.12263168 0.78649998 4287268996
0.31391007 0.12911056 0.78500003 4285360221
0.33337238 0.12751253 0.7881667 4287728518
0.33701959 0.12727575 0.78666669 4287399809
0.31431165 0.13247131 0.78600001 4286936684
0.33241192 0.13293962 0.78740007 4286080348
0.33524722 0.13232815 0.78500003 4285620304
0.31431437 0.13672872 0.78600001 4287857530
0.33331698 0.13710164 0.78800011 4287596671
0.33768362 0.13777208 0.7856667 4287199336
0.33318743 0.14238471 0.7876668 4287660406
0.33548433 0.14306594 0.78550005 4287066464
0.33341631 0.14802039 0.78733331 4286012999
0.33656582 0.14784078 0.78633338 4285683521
0.33324546 0.15201615 0.78775012 4285751628
0.33657974 0.1523288 0.78600007 4286674275
0.31748036 0.15854198 0.78850007 4287663496
0.33358085 0.15741046 0.78800005 4286480759
0.33552665 0.15798545 0.78550005 4286679688
0.31768924 0.16292271 0.78900003 4287598989
0.33327654 0.16270544 0.78775007 4287073419
0.33532745 0.16214775 0.78500003 4286811021
0.31709373 0.16688573 0.78750002 4287731347
0.33403686 0.16682126 0.78866673 4286877327
0.3368445 0.16716 0.78600001 4286548877
0.31690174 0.17104782 0.78700006 4287928725
0.33363375 0.172812 0.78800011 4286680464
0.33633047 0.17249534 0.78600001 4286484113
0.3330144 0.17751101 0.78700006 4287139730
0.33678043 0.17724738 0.78575003 4286877075
0.33356142 0.18207613 0.78825009 4286277227
0.33637857 0.18317537 0.78600007 4286738035
0.31936169 0.18723369 0.78766674 4288579207
0.33319858 0.18721355 0.78733343 4286798948
0.33586589 0.18798161 0.78600001 4283639342
0.31870538 0.192178 0.78600001 4287000172
0.33308405 0.19248436 0.78700006 4285487709
0.33545583 0.19094488 0.78500003 4285415495
0.31872246 0.19644655 0.78600001 4288322453
0.33321285 0.19682923 0.78725004 4287205775
0.33549958 0.19842061 0.78500003 4286942604
0.33406815 0.20318009 0.78833342 4287008655
0.33655238 0.20284399 0.78640002 4286680206
0.33468428 0.20881972 0.78800005 4287723385
0.33758095 0.20712885 0.78614289 4287267975
0.34202924 0.20808734 0.78500003 4285162342
0.31838211 0.2100715 0.78500003 4286280301
0.32001594 0.21328869 0.78900003 4285491555
0.33471435 0.21311322 0.78800005 4282855215
0.33742884 0.21179347 0.78642863 4287197811
0.33417705 0.21892835 0.78833342 4286086267
0.33630955 0.21703687 0.78660005 4285756788
0.31630918 0.22287977 0.78500003 4280955939
0.33306289 0.22323434 0.78775007 4285758326
0.33566186 0.22087975 0.78500003 4286218881
0.31660533 0.22735061 0.7856667 4283390025
0.32881355 0.22982317 0.78650004 4281351209
0.33246198 0.22739597 0.78666669 4284509020
0.31697792 0.23294927 0.78650004 4285757293
0.32842281 0.23274691 0.78550005 4282206010
0.32018822 0.239087 0.78900003 4281020452
0.32908687 0.2374896 0.78700006 4284442718
0.31899714 0.24139479 0.78600001 4286279005
0.32923156 0.24186759 0.78725004 4282666795
0.3326464 0.2444396 0.78500003 4284578108
0.32246861 0.24720828 0.78733343 4287116083
0.32815841 0.24782853 0.78800011 4287118386
0.33071476 0.24769609 0.78633338 4286467125
0.3234143 0.25217533 0.78600001 4287903544
0.32759294 0.25293219 0.78825009 4287967797
0.33180705 0.25260967 0.78640002 4290737527
0.32831144 0.25724196 0.78620005 4288230454
0.33263704 0.25776878 0.78633338 4287376949
0.33607429 0.25953522 0.78500003 4294363083
0.33321366 0.26363739 0.78666669 4285349432
0.3361007 0.26295558 0.78666669 4289492857
0.33444759 0.26847097 0.78600001 4280499751
0.33675337 0.2678943 0.78633338 4284970852
0.33377469 0.27206221 0.78600001 4280437545
0.33756015 0.27266958 0.78550005 4280240680
0.34060904 0.27254584 0.78500003 4280174375
0.33369103 0.2767362 0.78650004 4280833075
0.33754638 0.27831036 0.78680009 4281492033
0.34069768 0.27795357 0.78500003 4281754952
0.33828998 0.282233 0.78600001 4284584051
0.34165064 0.28277898 0.7853334 4280635703
0.33864841 0.28549692 0.78500003 4282150738
0.34248587 0.28709644 0.78625 4283070044
0.37528265 -0.024271453 0.79300004 4280097545
0.32314375 0.063743949 0.79200006 4286130220
0.32770985 0.061649743 0.79266667 4285866535
0.33279717 0.062670931 0.79200006 4285932071
0.32059389 0.067949705 0.79100001 4285935411
0.33343622 0.066661246 0.79266673 4285734948
0.33517274 0.067864224 0.79000002 4285867049
0.32072815 0.072266854 0.79133338 4284034606
0.33353537 0.073023885 0.79375005 4283899673
0.33602849 0.072748944 0.79075003 4283703069
0.32099736 0.07769087 0.79200006 4284757554
0.33207113 0.077455796 0.79180002 4282130449
0.33667335 0.076523282 0.79100001 4281933590
0.33196262 0.082846448 0.79000002 4283835929
0.33210164 0.087376043 0.79225004 4284360732
0.33629349 0.086766466 0.7906 4284688925
0.32059053 0.09366475 0.79100001 4281608998
0.32826266 0.094020814 0.79400003 4283512106
0.33224404 0.092950545 0.79219997 4284888104
0.32355016 0.097125709 0.79300004 4280491542
0.33152273 0.097300053 0.79150003 4285019178
0.32059091 0.1022368 0.79100001 4282004783
0.33162388 0.10268633 0.79237509 4282661925
0.33519095 0.10211468 0.79000002 4284171561
0.31864914 0.10766426 0.79150003 4285284918
0.33180857 0.10775817 0.79216671 4282009896
0.31905228 0.11209323 0.79250002 4285875507
0.33163822 0.11199281 0.79175001 4281549603
0.31898645 0.11743504 0.79233336 4285677875
0.33159843 0.11782548 0.79250002 4285623384
0.31885409 0.12275148 0.79200006 4285485893
0.33184871 0.12285279 0.79120004 4287334533
0.31905735 0.12712324 0.79250002 4286083430
0.32939994 0.12697181 0.79150003 4286413172
0.33092454 0.12780534 0.79000002 4287596675
0.31946242 0.13158424 0.79350007 4287662207
0.32961199 0.13027307 0.79200006 4286938231
0.33047053 0.13319348 0.79233336 4286017128
0.32962424 0.13886188 0.79200006 4287664009
0.33063844 0.13725819 0.79100007 4287597959
0.31947103 0.14233714 0.79350007 4288121220
0.33058763 0.14258471 0.79120004 4287399037
0.3186045 0.14731093 0.79133338 4287855993
0.33209503 0.14798842 0.79100007 4287263583
0.31908107 0.15290096 0.79250002 4288382080
0.32832387 0.15428114 0.79400003 4285288770
0.33108735 0.15318519 0.792 4284957487
0.31848177 0.15582792 0.79100001 4287859333
0.32185182 0.15857559 0.79400003 4287459949
0.33130068 0.15729986 0.79180002 4286470728
0.32185578 0.16072899 0.79400003 4288054655
0.33075199 0.16249532 0.792 4287330928
0.32146603 0.16805527 0.79300004 4287534484
0.32948112 0.16775915 0.79150003 4286679947
0.33173025 0.16780829 0.79000002 4286745742
0.3291187 0.17187707 0.79233336 4287008656
0.33202156 0.1715288 0.79066676 4286680462
0.3214905 0.17773764 0.79300004 4287994261
0.33076373 0.17698075 0.79140002 4287205520
0.32182345 0.18324988 0.79200006 4287062373
0.33085224 0.18241525 0.79260004 4286341734
0.32409462 0.18874858 0.79400003 4285814104
0.33096385 0.18752962 0.79100001 4288247419
0.32390285 0.19186233 0.79350007 4286605672
0.33096686 0.19266722 0.79225004 4286145895
0.32385692 0.19721103 0.79333335 4288650905
0.32846582 0.19739701 0.79400003 4287730832
0.33075315 0.19739518 0.79220003 4287533198
0.32292846 0.20200722 0.79100001 4288389016
0.33192447 0.20226443 0.79183334 4285820270
0.32309112 0.20747329 0.79133338 4286279533
0.3285096 0.2060343 0.79400003 4288059798
0.33181477 0.20720492 0.79150003 4287136643
0.32420272 0.21249163 0.79400003 4285226332
0.33258981 0.21222898 0.79120004 4287722357
0.32064247 0.21692196 0.79050004 4287664779
0.33227438 0.21745598 0.79140007 4286940804
0.32152224 0.22251701 0.79124999 4285232487
0.32885435 0.22264564 0.79283339 4286153338
0.33215007 0.22161581 0.79033333 4286021500
0.32310525 0.22782311 0.79320014 4282864448
0.32859033 0.22818086 0.79280007 4283259975
0.33132651 0.22654393 0.79000002 4285627501
0.32294258 0.23280956 0.79325002 4286021490
0.32677436 0.23247518 0.792 4284640604
0.32236525 0.23668751 0.79175001 4287073667
0.32650027 0.23657419 0.79124999 4285626991
0.32332376 0.24197038 0.79133338 4284243268
0.32699469 0.24230595 0.79233336 4283126324
0.32585379 0.24672973 0.79033333 4286135082
0.37593797 -0.024453893 0.79900002 4279834887
0.37499321 -0.015752057 0.79700005 4283190330
0.32780209 0.064025298 0.79550004 4285669666
0.33082709 0.063984983 0.79500002 4285998374
0.32477546 0.066222362 0.79600006 4286261806
0.32810178 0.06766846 0.7978 4285736230
0.33196259 0.067659788 0.79600006 4285867045
0.32711244 0.072731026 0.79644448 4283638557
0.33262223 0.072277732 0.7962001 4284293662
0.32734016 0.07818193 0.79699999 4284295196
0.33124459 0.079161473 0.79600006 4283114004
0.32221264 0.082292631 0.79500002 4285282352
0.32785258 0.082628593 0.79825008 4284624161
0.33082902 0.082292914 0.79500002 4283573271
0.32241482 0.086655304 0.79550004 4285348145
0.32745534 0.08758577 0.79662502 4284624418
0.33083025 0.087677814 0.79500002 4284163609
0.32333511 0.092098527 0.79600006 4283445033
0.3268261 0.092191488 0.79680008 4282983964
0.33083156 0.091985852 0.79500002 4284297764
0.32780516 0.097431891 0.79550004 4281739551
0.32328948 0.10275394 0.79500002 4281674532
0.3277891 0.10256699 0.79633331 4281347101
0.32302356 0.10841067 0.79700005 4285284400
0.32686803 0.10753449 0.79650003 4282266656
0.32282194 0.11265948 0.79650009 4285481261
0.32714161 0.11266083 0.79649997 4282726944
0.33084306 0.11352827 0.79500002 4281088538
0.32343131 0.11719541 0.79800004 4284362784
0.32748055 0.11744988 0.79657143 4285486144
0.33084664 0.11783738 0.79500002 4285420610
0.32302842 0.12244761 0.79700011 4285616196
0.32723615 0.12277713 0.79737502 4286278755
0.33085069 0.12214678 0.79500002 4287203458
0.32323411 0.12792653 0.79750001 4287268735
0.32778862 0.12806734 0.79700005 4287466633
0.32323712 0.13224907 0.79750001 4288058253
0.32763505 0.13228138 0.79766673 4287399812
0.32175687 0.13747941 0.79650003 4287793023
0.32741266 0.13759044 0.79711115 4287070588
0.32392254 0.14287883 0.79650009 4287003510
0.32804593 0.14279561 0.79600006 4286609010
0.3234207 0.14696677 0.79525006 4287333245
0.32846624 0.14729704 0.79700005 4287726718
0.33088601 0.14693314 0.79500002 4286936941
0.32380161 0.15253368 0.79616672 4287793281
0.32809335 0.15218937 0.79660004 4286081117
