# .PCD v0.7 - Point Cloud Data file format
VERSION 0.7
FIELDS x y z rgba
SIZE 4 4 4 4
TYPE F F F U
COUNT 1 1 1 1
WIDTH 1090
HEIGHT 1
VIEWPOINT 0 0 0 1 0 0 0
POINTS 1090
DATA ascii
0.37562427 0.095558375 0.75400001 4289245092
0.30112576 0.14017355 0.75300002 4286350461
0.30365616 0.17922562 0.75400001 4288191384
0.3743546 0.18291086 0.75000006 4290429627
0.37582564 0.18158263 0.75300002 4290232248
0.30412871 0.18846937 0.75000006 4288848799
0.30454761 0.19178259 0.75100005 4288520605
0.30419767 0.20274591 0.75000006 4287994518
0.30380544 0.21202488 0.75400001 4288651420
0.37855086 0.22087093 0.75300002 4290758591
0.30522454 0.2340343 0.75200003 4287912284
0.3728472 0.2519336 0.75300002 4291743175
0.31675023 0.2637006 0.75400001 4280965958
0.32236028 0.27553505 0.75200003 4281558361
0.36334717 -0.025290845 0.75900006 4279835148
0.33923125 0.052662078 0.75600004 4286482575
0.34129006 0.052663669 0.75600004 4287403677
0.34839433 0.054863181 0.75800002 4287205269
0.30886412 0.056825347 0.75700003 4283641134
0.37333089 0.065184169 0.75800002 4289770407
0.30395684 0.077129811 0.75500005 4284561450
0.30350852 0.10632584 0.75900006 4285414443
0.30351529 0.12894787 0.75900006 4286676085
0.30231991 0.13458471 0.75600004 4283655274
0.30292237 0.13793072 0.75750005 4284509042
0.30483422 0.1696641 0.75700003 4287403669
0.30443701 0.17149171 0.75600004 4287008657
0.37879428 0.18095382 0.75900006 4290429113
0.30699992 0.19742841 0.75700009 4288323741
0.37882027 0.21604213 0.75800002 4290693572
0.37959623 0.22353719 0.75500005 4290956224
0.38064262 0.22621536 0.75700003 4291022017
0.37980783 0.23394908 0.75500005 4291415230
0.37886083 0.24289085 0.75700003 4292065974
0.37731668 0.24735835 0.75800002 4289107087
0.37527391 0.25150687 0.75800002 4291738807
0.3698791 0.26506796 0.75500005 4290498758
0.36985594 0.27274799 0.75900006 4286622360
0.3658078 0.27721614 0.75700009 4283398759
0.36108169 0.28271797 0.75800002 4280836427
0.36174318 -0.021202514 0.76000005 4279835402
0.38201183 -0.010951879 0.76300001 4290033841
0.37731734 -0.0088694161 0.76200002 4279176704
0.31503057 0.05513582 0.76200002 4285427826
0.33450979 0.055284474 0.76400006 4285823359
0.33658656 0.055285592 0.76400006 4287205012
0.34861112 0.055222929 0.76300001 4286481546
0.37140852 0.058170278 0.76050007 4285684310
0.30803043 0.061168831 0.76000005 4285738801
0.37579888 0.067684457 0.76300001 4290163628
0.30677414 0.081973553 0.76200002 4282854430
0.379639 0.10278296 0.76200002 4289770407
0.30510813 0.10895335 0.76300001 4284435765
0.38069037 0.11343497 0.76400006 4288584842
0.30471024 0.11913341 0.76200002 4285152816
0.30471137 0.1222305 0.76200002 4285351480
0.38075316 0.12382276 0.76400006 4286545259
0.30431387 0.1272254 0.76100004 4287533443
0.30431634 0.13134997 0.76100004 4287073680
0.3808023 0.13109805 0.76400006 4285425751
0.30684239 0.16871692 0.76200002 4287403669
0.38113272 0.1685777 0.76400006 4288325795
0.38069141 0.17356618 0.76300001 4288852136
0.37975439 0.17830993 0.76100004 4290100148
0.38021639 0.17542051 0.76200002 4289706161
0.30817521 0.18891698 0.76000005 4285162337
0.37929279 0.19257013 0.76400006 4286551443
0.37937981 0.19884725 0.76400006 4288522664
0.37917715 0.20185521 0.76350003 4289312696
0.38135627 0.21956551 0.76300001 4288258976
0.38219288 0.22920707 0.76000005 4291022274
0.30885959 0.23475696 0.76100004 4286462783
0.38301158 0.23280966 0.7615 4290890942
0.38124788 0.23922865 0.76200002 4287257687
0.38031554 0.24175207 0.76000005 4289957001
0.37975791 0.24687904 0.76300001 4286731089
0.37720597 0.25072458 0.76200002 4287385422
0.37476024 0.25877854 0.76100004 4285165159
0.37317821 0.26223639 0.76200002 4284445029
0.32092121 0.2650972 0.76400006 4281752391
0.37276575 0.26506111 0.76100004 4283918941
0.37223753 0.27242011 0.76400006 4282214229
0.36970419 0.27625287 0.76300001 4281492301
0.33395833 0.28427511 0.76400006 4281753941
0.36508211 0.28214332 0.76200002 4281033291
0.36765179 -0.019344984 0.76800001 4279835402
0.39988121 -0.0089582792 0.76900005 4280888099
0.31959137 0.055569883 0.76800001 4284901996
0.32304898 0.05544956 0.76633334 4285888636
0.32789162 0.055390239 0.76550007 4286086531
0.33226407 0.055427808 0.76600003 4285099636
0.36429888 0.057646617 0.76750004 4285024333
0.36754552 0.057503343 0.76550007 4283965475
0.37045354 0.057471439 0.76500005 4284163366
0.37466463 0.06163016 0.76500005 4287069556
0.37662846 0.064038612 0.76900005 4285481274
0.37678951 0.069937706 0.76500005 4290426286
0.37704459 0.073098727 0.76550007 4288518803
0.37705705 0.077253744 0.76550007 4284770657
0.30878672 0.08458931 0.76700002 4284298279
0.37936223 0.082719147 0.76800001 4285164901
0.38068813 0.08799465 0.76850003 4287729541
0.38045681 0.09210895 0.76800001 4287072383
0.38096514 0.095361508 0.76900005 4286349432
0.38248348 0.10772049 0.76766664 4289112474
0.30590811 0.11131157 0.76500005 4283252526
0.38117701 0.11150385 0.76500005 4288848528
0.38195413 0.11693413 0.7665 4288189571
0.38247767 0.12125674 0.76750004 4287334005
0.30591238 0.12582111 0.76500005 4284236082
0.38127214 0.1271065 0.76500005 4286216294
0.30591735 0.13411359 0.76500005 4284904049
0.38182157 0.13456838 0.76600003 4285623130
0.38259265 0.13796523 0.76750004 4286806632
0.38187742 0.14186788 0.76600003 4286807917
0.3824189 0.14727631 0.76700002 4287863954
0.38171643 0.1522027 0.76550007 4287338384
0.38275218 0.15678646 0.76750004 4287536019
0.38288602 0.16205333 0.76766664 4288324508
0.30904967 0.16680896 0.76750004 4287008911
0.38209715 0.16588256 0.76600003 4288062367
0.38166583 0.17193165 0.76500005 4288457638
0.36239365 0.17891631 0.76900005 4288713370
0.38159141 0.1791088 0.76900005 4286348151
0.38090944 0.18400314 0.76750004 4287073930
0.3118163 0.18906471 0.76900005 4286804852
0.38120997 0.18832433 0.76800001 4286483338
0.38025784 0.19097763 0.76600003 4286485650
0.38032871 0.1962204 0.76600003 4287338647
0.31069881 0.20915572 0.76600003 4287928211
0.37996912 0.20539877 0.76500005 4289904833
0.38099483 0.20803972 0.76700002 4289904571
0.38073039 0.21206285 0.76633334 4287865246
0.36711952 0.21890759 0.76900005 4286154379
0.38139725 0.21766071 0.76750004 4286220424
0.36651927 0.22251852 0.76875007 4285430399
0.38266325 0.22344509 0.76550007 4286548612
0.35442483 0.2282185 0.76900005 4282930250
0.36381045 0.22820738 0.76850009 4280100640
0.36764339 0.22716217 0.76833338 4282337350
0.37157574 0.22953071 0.76900005 4280626727
0.38324237 0.22795796 0.7665 4284114522
0.35877487 0.23355389 0.76900005 4287468688
0.3624911 0.23221041 0.76783341 4286679941
0.36768734 0.23219462 0.76750004 4286021497
0.37222281 0.23241898 0.76800001 4281877048
0.37593633 0.23277813 0.76900005 4280495647
0.38407493 0.23263769 0.76800001 4282799427
0.31208894 0.23512539 0.76900005 4285611840
0.35138696 0.23977818 0.76900005 4280363551
0.35868493 0.23767684 0.76866674 4283982428
0.36190385 0.23713902 0.76771432 4284376929
0.36679316 0.23736601 0.76860011 4286613889
0.3725208 0.2357429 0.76850003 4280561444
0.37697166 0.23695749 0.76875007 4280168732
0.3839106 0.23671812 0.76750004 4284968026
0.34992638 0.24366961 0.76800001 4287073371
0.35288325 0.24250481 0.76750004 4285035844
0.35762203 0.24288861 0.76850009 4282932019
0.3625885 0.24271517 0.76766676 4281682733
0.36753538 0.24427184 0.76900005 4283263296
0.373514 0.24407549 0.76800001 4282202661
0.37725914 0.24354511 0.76833338 4287248182
0.38170242 0.2427265 0.76825005 4287319113
0.31601861 0.24745227 0.76800001 4288303193
0.35290983 0.24734578 0.76880008 4286923323
0.35769308 0.24711931 0.76850009 4286799175
0.36258319 0.24689074 0.76749998 4285816132
0.36789483 0.24771698 0.76780003 4286076731
0.37213585 0.24699308 0.76725 4287247926
0.37741908 0.24772666 0.76700002 4288233284
0.38037091 0.24586895 0.7665 4288235596
0.36323401 0.25256479 0.76866674 4290668665
0.36698669 0.25252792 0.7675001 4288826966
0.3721801 0.25207621 0.76824999 4287903038
0.37770462 0.25227189 0.76850009 4288102468
0.32206821 0.25771177 0.76700002 4287528311
0.36347386 0.25691798 0.76900005 4288886856
0.36740729 0.25778797 0.76816672 4288690759
0.3725338 0.25830474 0.76833338 4288101444
0.37676111 0.25785664 0.76666671 4286994518
0.3225154 0.26015574 0.76800001 4282209089
0.3677665 0.26170427 0.76875007 4287184447
0.37236896 0.26243398 0.76840001 4285944141
0.37555104 0.2607685 0.76700002 4285156166
0.37418959 0.2675617 0.76833338 4283131475
0.37315795 0.27100435 0.76600003 4282739286
0.36904979 0.27941513 0.76600003 4281164361
0.37149823 0.27732825 0.76900005 4281360970
0.36684519 0.28326786 0.76800001 4281427534
0.36212367 0.28599179 0.76700002 4283335277
0.36581904 -0.025754573 0.77300006 4279966220
0.3690891 -0.021510577 0.77100003 4279769609
0.37052652 -0.023692459 0.77400005 4279703816
0.38763765 -0.011053286 0.77000004 4281612336
0.34304038 0.055830278 0.77150005 4287205012
0.34911251 0.055798989 0.77100003 4286547082
0.35437176 0.057893921 0.77100003 4288058777
0.35706538 0.057822578 0.77000004 4287926934
0.36150777 0.057865687 0.77050006 4285820790
0.31353348 0.062051259 0.77100003 4285147435
0.3684493 0.060235277 0.77400005 4285079588
0.37375408 0.060244814 0.77400005 4285080357
0.37621278 0.061184071 0.77250004 4285083950
0.37859511 0.067518845 0.773 4284888623
0.37885374 0.072809368 0.77350008 4283643183
0.37911665 0.079156101 0.77400005 4281151016
0.37929043 0.082933515 0.77000004 4282335031
0.3107993 0.08723215 0.77200001 4284363045
0.38077542 0.085354984 0.77300006 4283847500
0.30999345 0.093264237 0.77000004 4282133792
0.31120142 0.091533445 0.77300006 4284695609
0.38129103 0.091769412 0.77400005 4285886823
0.31120104 0.09677022 0.773 4281743407
0.38147414 0.09862262 0.77000004 4286677881
0.31099969 0.10088997 0.77250004 4281610535
0.36407602 0.10319814 0.77350008 4284630826
0.36596465 0.10418804 0.77300006 4285285930
0.3827318 0.10314046 0.77250004 4286216039
0.36196816 0.10739104 0.77350008 4285550898
0.36857846 0.10853253 0.77400005 4285486136
0.38349521 0.1075459 0.77400005 4286216810
0.30790782 0.1141253 0.77000004 4283053857
0.36157167 0.11214754 0.77375007 4286539598
0.36753184 0.1127313 0.77400005 4286670155
0.37258357 0.1126719 0.77344447 4286738523
0.37777382 0.11271785 0.77360004 4287135854
0.38302681 0.1126568 0.773 4286018659
0.30790848 0.11725469 0.77000004 4284365615
0.36066774 0.1175586 0.77366668 4286544233
0.36649001 0.11798126 0.77400005 4285750863
0.37200308 0.11760536 0.77366668 4285357646
0.37713555 0.11697838 0.77400005 4283313693
0.3833034 0.11798847 0.77350008 4286213465
0.36438623 0.12322719 0.77400005 4287137920
0.36757207 0.1221901 0.77400005 4287203455
0.37823671 0.12329467 0.77400005 4286938736
0.38225901 0.12218702 0.77350003 4286410587
0.36321965 0.12633541 0.77375007 4287268991
0.36723518 0.1260431 0.77399999 4287203455
0.37197614 0.12808749 0.77350014 4287071097
0.37718695 0.12644485 0.77400005 4286873457
0.3825745 0.12684174 0.773 4286610023
0.35971695 0.1335472 0.77300006 4285357382
0.36340961 0.13292047 0.77333337 4286672985
0.36715376 0.13358355 0.77300006 4286607196
0.37185359 0.13270119 0.77260005 4287398256
0.37615564 0.13275209 0.77400005 4285227343
0.38314754 0.13262916 0.773 4287069289
0.35973179 0.13669722 0.77300006 4287727477
0.36291778 0.13671285 0.77300006 4287265637
0.36740762 0.13682358 0.77350003 4286343251
0.37252486 0.13746539 0.77250004 4287200104
0.37693235 0.1379018 0.77333337 4285621072
0.38366511 0.13595863 0.77400005 4287331689
0.35870093 0.14299406 0.77300006 4287462758
0.36255476 0.14168736 0.77314287 4287264608
0.36722615 0.14233555 0.77260005 4286409039
0.37221408 0.14295004 0.77233332 4287068259
0.3772856 0.14223327 0.77400005 4287134313
0.38338125 0.14215589 0.77333337 4285752147
0.35780978 0.14620228 0.77333337 4286605130
0.36348477 0.14693473 0.77333337 4285617979
0.36758339 0.1469654 0.77150005 4287131993
0.37314913 0.14709604 0.77200001 4287134312
0.37733099 0.14855324 0.77400005 4287463792
0.38271031 0.14776726 0.77333337 4287468168
0.3539122 0.15472129 0.77400005 4285483058
0.3574945 0.15295856 0.7725715 4286083165
0.36254874 0.15216973 0.77299994 4286937959
0.36743343 0.15213633 0.77111107 4287135084
0.3730247 0.15228371 0.77166671 4287071094
0.37773576 0.15299818 0.77300006 4286744192
0.38264135 0.15277798 0.77383333 4286548872
0.3573868 0.15752687 0.77320009 4286349168
0.36280373 0.15763135 0.77250004 4287074184
0.36734486 0.1579794 0.77233338 4287205513
0.37231901 0.15766571 0.77233338 4287074186
0.37762183 0.15769076 0.77225006 4286285704
0.38202745 0.1577782 0.77250004 4286155144
0.31098461 0.16261987 0.77233338 4286614414
0.36224395 0.16235495 0.77285719 4287074701
0.36732653 0.16311444 0.77200001 4287008910
0.37240174 0.16239429 0.77316666 4286417291
0.3775793 0.16234629 0.77340007 4285234049
0.38256085 0.16220014 0.77350008 4286418319
0.35353613 0.16818668 0.77300006 4286877843
0.35684139 0.16826254 0.7732501 4287009428
0.36193001 0.16732948 0.77200001 4286680461
0.3670288 0.16812439 0.77225 4286220426
0.37189978 0.16843162 0.77350003 4286483599
0.37747076 0.16542196 0.77400005 4284642170
0.38219869 0.16729379 0.77266669 4285300099
0.36381528 0.17226516 0.77366668 4286549908
0.36777622 0.17266713 0.77375007 4286089615
0.37380502 0.17305301 0.77366668 4285826443
0.37838036 0.17376375 0.77350008 4286089357
0.38261506 0.17292149 0.77266669 4285365890
0.35899347 0.17746887 0.77200007 4287402646
0.36213022 0.17689197 0.77120006 4286744204
0.36683249 0.17746072 0.77166671 4285820020
0.37238774 0.17761199 0.77211118 4286742405
0.37788093 0.17745239 0.77350008 4285161831
0.38209146 0.17668934 0.77225006 4286675322
0.35875288 0.18128121 0.77333337 4288252045
0.36194217 0.18287277 0.77159995 4286208094
0.3672975 0.1824086 0.7712 4288510850
0.37250805 0.1829142 0.77225006 4288181370
0.37900662 0.18221635 0.77350008 4285681493
0.3814913 0.18189815 0.77200001 4288384398
0.31343016 0.18794815 0.77300006 4287992209
0.35284621 0.18829876 0.77350008 4287520613
0.35688192 0.18821278 0.77300006 4287653739
0.36197481 0.18708479 0.77250004 4287390054
0.3669627 0.18695462 0.77174997 4287589233
0.37076992 0.18729174 0.773 4286600027
0.37960446 0.18750671 0.77350008 4287335568
0.38175792 0.18753204 0.77350008 4285492593
0.35393956 0.19147137 0.77350008 4283966763
0.35736233 0.19056702 0.77400005 4287849832
0.36340764 0.19253205 0.77316666 4287332996
0.36739343 0.19211093 0.77300006 4286937984
0.37128356 0.19070338 0.77400005 4289827993
0.37912372 0.1922579 0.77350008 4286807427
0.38058987 0.19219522 0.77100009 4286547595
0.3542352 0.19898422 0.77400005 4288583325
0.35721183 0.19888641 0.77350008 4287468954
0.36321431 0.19822821 0.77400005 4287469467
0.36898041 0.19795343 0.77350008 4286812566
0.37244308 0.1981194 0.77400005 4287141788
0.37836513 0.19819206 0.77400005 4286353043
0.38065916 0.1974723 0.77100003 4286681751
0.35426578 0.20215327 0.77400005 4288387488
0.3582449 0.2030782 0.77333337 4287140760
0.36287799 0.20242254 0.77333337 4287468954
0.36797714 0.20354562 0.77200001 4286943124
0.37177306 0.20196144 0.77250004 4287141274
0.37655956 0.202278 0.77350008 4286681495
0.38055381 0.20268342 0.77240008 4286747545
0.35861248 0.2085408 0.77400005 4290355622
0.36230665 0.20746019 0.77275008 4287331460
0.3678697 0.20828059 0.77179998 4286022283
0.37239176 0.20738836 0.77140009 4286680982
0.3770622 0.20691539 0.77366668 4286615959
0.38106132 0.20750408 0.77300006 4286418322
0.31395578 0.2134469 0.77400005 4288191637
0.35712659 0.21248724 0.77300006 4286343278
0.36205786 0.21275628 0.77300006 4286870394
0.3669394 0.21304794 0.77333337 4285427318
0.37155142 0.21233144 0.77174997 4285826187
0.37682924 0.21294238 0.77375007 4286418065
0.38186222 0.21281576 0.77300006 4286155147
0.35400331 0.21985056 0.77300006 4286548109
0.3579005 0.21756656 0.77222228 4286152067
0.3626835 0.21728867 0.77100009 4287272089
0.36684638 0.2169764 0.77120006 4285365377
0.37206948 0.21787716 0.77266669 4286089357
0.37763819 0.21911344 0.773 4285891721
0.38097057 0.21711317 0.77324998 4285826185
0.35348454 0.22346516 0.77333337 4286285451
0.35747841 0.2225495 0.77116674 4286088842
0.36252055 0.22242936 0.7705 4286219916
0.36836481 0.22272344 0.77000004 4285627521
0.37266332 0.22285774 0.77149999 4286351501
0.3771199 0.22237898 0.77237505 4285957000
0.38229728 0.22246149 0.77180004 4285694340
0.34854198 0.22915888 0.77250004 4282536504
0.35261258 0.22788975 0.77160007 4284377953
0.35788158 0.22736396 0.77057141 4283982684
0.36228758 0.22732323 0.77100003 4283389778
0.37334275 0.22787791 0.7705 4286548616
0.37752381 0.22699149 0.77160007 4286154116
0.38160354 0.22750962 0.77020007 4285628023
0.34321046 0.23412479 0.77399999 4287468944
0.34724951 0.23258367 0.77249998 4282732101
0.35292497 0.23285541 0.77120006 4285955704
0.35754749 0.23307234 0.77100003 4286810755
0.37826085 0.23166971 0.77050006 4283259974
0.3821311 0.23260853 0.77020001 4281417773
0.34398562 0.23908156 0.77400005 4281350705
0.34814781 0.23792593 0.77280003 4284640101
0.35202625 0.23707324 0.77050006 4285231982
0.35630795 0.23713471 0.77050006 4288258203
0.37220809 0.23830418 0.77000004 4283457361
0.38203502 0.23750208 0.77025008 4282339385
0.31466329 0.24175891 0.77000004 4288499285
0.34287342 0.24229582 0.773 4283521346
0.34758192 0.24241698 0.77175003 4283981628
0.35080573 0.24218884 0.77000004 4285431371
0.35612521 0.24015415 0.77000004 4280627240
0.36819446 0.24156407 0.77050006 4284574816
0.37215275 0.24284922 0.77100003 4282998081
0.37694097 0.24127084 0.77075005 4284373576
0.38091344 0.24165252 0.77000004 4286403144
0.34395218 0.24746887 0.77366668 4288894042
0.34731254 0.24806671 0.77316672 4288298307
0.35070765 0.24704406 0.77200007 4286001198
0.31942058 0.25266349 0.77100003 4289090908
0.34416139 0.25182575 0.77400005 4289018187
0.34772182 0.25240988 0.77233338 4288491842
0.35236943 0.25197822 0.77075005 4290469484
0.3573283 0.25186673 0.77079999 4290672516
0.36144814 0.25256932 0.77099997 4292252578
0.37466127 0.25321627 0.77000004 4287837756
0.37682727 0.2532621 0.77000004 4288035135
0.34807482 0.25581709 0.77300006 4288753473
0.35125637 0.25679487 0.77366668 4289016132
0.35828853 0.25680801 0.77333337 4288164164
0.36165023 0.25783655 0.77099997 4288689736
0.37473041 0.25641024 0.77000004 4287444540
0.37689793 0.25645748 0.77000004 4287249213
0.32506329 0.26431358 0.77400005 4281357118
0.34988043 0.26190099 0.77200001 4288031800
0.35248417 0.2632257 0.77200001 4285547592
0.35814345 0.26240662 0.77200001 4286921282
0.3626143 0.26295462 0.77060002 4286596937
0.36623713 0.26368126 0.77000004 4286010963
0.32425213 0.26575139 0.77200001 4281358659
0.35210884 0.26619944 0.77200001 4290495675
0.35727003 0.26612985 0.77149999 4292006348
0.36279634 0.26686054 0.77174997 4288587423
0.36769623 0.26779634 0.77200001 4284313181
0.37220287 0.26734722 0.77100003 4284050265
0.32608837 0.27392146 0.77100003 4281687118
0.36307085 0.27196816 0.77366668 4280504117
0.36720133 0.27183843 0.77260005 4280635699
0.37252101 0.27274156 0.77216673 4281030460
0.36405507 0.2767483 0.77400005 4280636731
0.36767352 0.27761555 0.77316672 4280703036
0.37131643 0.27665871 0.77325004 4280965953
0.36718598 0.28207719 0.77266675 4280966724
0.34868208 0.28784683 0.77300006 4280903248
0.35192835 0.28791866 0.77300006 4280441155
0.35750079 0.28816769 0.77333337 4279718717
0.36222768 0.28660619 0.77266669 4280639562
0.36504489 0.28536475 0.77100003 4281361229
0.3183063 0.058176238 0.77500004 4283706927
0.3421694 0.058306787 0.7766667 4288254360
0.3477585 0.056085829 0.77500004 4288257957
0.354096 0.058191985 0.77500004 4287664019
0.35723466 0.062576227 0.77722228 4284946715
0.36241367 0.06217609 0.77740002 4285013793
0.36728024 0.062215436 0.77780002 4285014051
0.37213412 0.06301339 0.77800006 4284947742
0.37651736 0.064210832 0.77750003 4285212710
0.31491968 0.066747054 0.77700001 4284163880
0.31572986 0.069029264 0.77900004 4284361513
0.35820973 0.068156168 0.77840006 4285013278
0.36303088 0.067939118 0.7782501 4284751648
0.36733684 0.068048373 0.77700007 4284423966
0.37292489 0.067723893 0.77800006 4284751133
0.3773514 0.067859307 0.77700001 4284951080
0.31491882 0.070957005 0.77700001 4284231212
0.31532374 0.073156014 0.77800006 4283706919
0.35803095 0.071917713 0.77800006 4284030235
0.36318439 0.071854152 0.77720004 4281343256
0.36729705 0.071961641 0.77600002 4281342743
0.37235981 0.072256617 0.77680004 4282784023
0.37780747 0.072250456 0.7766 4283246114
0.35804176 0.078667425 0.77800006 4282130450
0.36280775 0.077178285 0.7787143 4281147671
0.36787033 0.077396065 0.77775002 4281346596
0.37271896 0.077348255 0.77714288 4284240975
0.37755409 0.077289023 0.77642858 4282530614
0.31532243 0.081586778 0.77800006 4282788122
0.35814109 0.082486048 0.77820003 4283245331
0.36270884 0.082631253 0.77750003 4283048467
0.36684683 0.082613781 0.77724999 4282589718
0.37201193 0.082895696 0.77780002 4284638813
0.37742814 0.082374915 0.77614295 4282861891
0.31200683 0.089670703 0.77500004 4285415733
0.35750145 0.087313697 0.77771431 4284032275
0.36283508 0.086877495 0.77775007 4284296218
0.36722785 0.08772172 0.77577782 4283115546
0.37263432 0.087385848 0.77639997 4283583811
0.37703955 0.086750157 0.77625 4284767061
0.38106835 0.087760285 0.77575004 4284898903
0.3474755 0.09437912 0.77900004 4280491276
0.35369596 0.092237823 0.77866673 4284492830
0.3578735 0.09249144 0.77850002 4284755487
0.36288598 0.092160933 0.7778334 4284821535
0.36726877 0.092991151 0.77583337 4284564017
0.37336558 0.092513293 0.77700007 4284042302
0.37766325 0.092165239 0.77750009 4284699982
0.38067439 0.092526056 0.77600002 4285951334
0.35340369 0.097434029 0.77800006 4283638036
0.3571178 0.097297199 0.77683336 4284887847
0.3626281 0.097362623 0.77724999 4285085735
0.36807117 0.09740936 0.77750009 4285421122
0.37316644 0.097364686 0.77700001 4286475098
0.37756109 0.097410813 0.77725005 4286212959
0.38171923 0.097395577 0.77700001 4287005562
0.31281146 0.10463733 0.77700001 4283709739
0.35311255 0.10262004 0.77733332 4282726432
0.35695302 0.1025137 0.77644444 4282333212
0.36198103 0.10244737 0.77583337 4283254823
0.36816475 0.10180832 0.77616668 4285550388
0.37278464 0.10252734 0.77616668 4285221168
0.37673256 0.10245514 0.77550006 4285682749
0.38165939 0.102649 0.77683336 4285686609
0.35365519 0.10805459 0.77850008 4281022999
0.35706845 0.10781125 0.7766667 4282534692
0.36267138 0.10759871 0.77500004 4284436013
0.36778846 0.10731167 0.7753334 4285089836
0.37296617 0.10784002 0.77650005 4286145094
0.37723896 0.10785898 0.77649999 4286081877
0.38115084 0.1077735 0.77575004 4286544489
0.34885144 0.11313882 0.77725005 4282205735
0.35181016 0.11202215 0.77674997 4280694548
0.357463 0.11214626 0.77750009 4282929710
0.36269334 0.11390921 0.77500004 4286539855
0.36755577 0.11251104 0.77540004 4285945918
0.37973902 0.11292843 0.77500004 4286874224
0.38211852 0.11195892 0.77550006 4286807662
0.34798881 0.11741912 0.77766675 4285225538
0.35257176 0.11800775 0.7768333 4284700224
0.35745731 0.11706116 0.77687502 4284834124
0.36412752 0.118473 0.77500004 4287267186
0.36909333 0.11814268 0.77500004 4287068779
0.37359846 0.11823872 0.77550006 4285424210
0.37816569 0.1187118 0.77500004 4286410074
0.38222829 0.11725148 0.77566671 4286739293
0.34787187 0.12265758 0.77880007 4287068009
0.35301355 0.12260232 0.77700001 4287202938
0.35764334 0.122384 0.77550006 4287006847
0.36248571 0.12217691 0.77540004 4287137920
0.3725521 0.12244678 0.77550006 4287071612
0.37723473 0.12190469 0.77525008 4286609772
0.34770489 0.12681897 0.77840006 4287335557
0.35255343 0.12761736 0.7772857 4286544495
0.35721105 0.12803158 0.77625 4287531133
0.36199346 0.12845841 0.77520007 4287531131
0.3684338 0.12901683 0.77500004 4287465339
0.37339413 0.12553191 0.77500004 4286940025
0.37787265 0.12730685 0.77540004 4286873715
0.38174757 0.12925416 0.77600002 4286806375
0.34848446 0.13270244 0.77820003 4286676085
0.35259819 0.13297723 0.77600002 4286674540
0.35756901 0.13286889 0.77525008 4285292108
0.36170214 0.13179237 0.77500004 4285357127
0.36809272 0.13182297 0.77500004 4286344796
0.37770459 0.1318761 0.77500004 4286674790
0.38141406 0.13312218 0.77600002 4287726447
0.34800154 0.1371268 0.77875006 4287202428
0.35269031 0.13721998 0.77616668 4287597699
0.35781735 0.13716854 0.77575004 4287466109
0.38218606 0.13759458 0.7762 4286672986
0.34866276 0.14193083 0.77900004 4286411885
0.35319036 0.14268382 0.77722228 4287399030
0.356962 0.14177093 0.77500004 4287530871
0.36707142 0.14024311 0.77500004 4287396450
0.37134144 0.14026777 0.77500004 4287596657
0.37884444 0.14242443 0.77500004 4286739040
0.38169733 0.14304736 0.77600002 4287528813
0.31364417 0.14923964 0.77900004 4287271563
0.34871906 0.14756708 0.7786001 4287726456
0.35250843 0.14766644 0.77566671 4287132251
0.35752824 0.14861819 0.77500004 4286144836
0.36178833 0.14864132 0.77500004 4286078529
0.37780297 0.14663547 0.77500004 4287002727
0.38115785 0.14754993 0.77600002 4286938736
0.3130447 0.15211637 0.77750003 4286942599
0.3474907 0.15243916 0.77866673 4285488718
0.35320958 0.15217523 0.77716678 4284761131
0.356475 0.15071908 0.77500004 4283512351
0.37997943 0.15087157 0.77500004 4286678912
0.31312028 0.15741618 0.77766675 4287469460
0.34339768 0.15777616 0.77900004 4284296740
0.3475379 0.15735416 0.77812505 4287000413
0.35272565 0.15760773 0.77662498 4286734667
0.34853268 0.16298854 0.77850008 4286668883
0.35311499 0.16266878 0.77683336 4287329641
0.35772261 0.16236837 0.77525008 4287205512
0.34777981 0.16694187 0.77820009 4287074448
0.3526347 0.16717196 0.77650005 4286943634
0.35762799 0.16547926 0.77500004 4287206033
0.36084324 0.16761041 0.77500004 4286811791
0.37757874 0.16718195 0.77566671 4284905086
0.38012645 0.1677683 0.77500004 4285892495
0.34777421 0.17203431 0.77771431 4287403157
0.35262343 0.17265809 0.77628571 4287075221
0.35767901 0.17286253 0.77500004 4287009688
0.36159721 0.17324327 0.77500004 4286878359
0.37158504 0.17297339 0.77500004 4286023822
0.37729761 0.1710732 0.77575004 4286286737
0.38104185 0.17137198 0.7753334 4285365895
0.34775418 0.17790338 0.77800006 4287994521
0.3527686 0.1776647 0.77679998 4287534742
0.35686773 0.17666152 0.7755 4287272087
0.38023335 0.1783424 0.77500004 4286603622
0.31543863 0.18388119 0.77800006 4286875524
0.3489261 0.18165784 0.77833343 4289240481
0.35283962 0.18255197 0.7772857 4286733154
0.35671613 0.18325132 0.77583337 4287590775
0.37707254 0.18465722 0.77500004 4286928732
0.31423333 0.18632928 0.77500004 4289242790
0.347763 0.18785931 0.77814293 4286728785
0.35225731 0.18724847 0.77575004 4285153608
0.35778701 0.18658671 0.77500004 4288183938
0.37387925 0.18779762 0.77500004 4287194732
0.37747261 0.18801437 0.77575004 4287193448
0.34750256 0.19255793 0.77816677 4286729812
0.35187477 0.19206345 0.77600002 4286932073
0.35784328 0.19292721 0.77500004 4287652453
0.36104447 0.19189966 0.77500004 4284103740
0.37321314 0.19237711 0.77500004 4287268232
0.37696394 0.19250022 0.7753334 4285294444
0.34783348 0.1972487 0.77814287 4288256155
0.35269901 0.19723587 0.77671427 4288058521
0.35741723 0.19640586 0.77540004 4287666330
0.36108577 0.19613007 0.77500004 4288258209
0.36825076 0.197263 0.77500004 4286746773
0.37312803 0.19532308 0.77550006 4286351242
0.37733641 0.1969005 0.77525008 4286220942
0.34770155 0.20277654 0.77842861 4287860113
0.35174105 0.20251468 0.77550006 4286672759
0.35792506 0.20138809 0.77500004 4287534491
0.3675822 0.20149131 0.77500004 4286812309
0.34762654 0.20740998 0.77816671 4288124055
0.35257518 0.20721605 0.77724999 4288585635
0.35701454 0.20728523 0.77600002 4287136391
0.37736166 0.2079756 0.77500004 4286747288
0.38060459 0.20802072 0.77500004 4286484372
0.34976953 0.21481997 0.77800006 4286935417
0.35230744 0.21253988 0.77733332 4286604654
0.35549742 0.21128947 0.77649999 4289236631
0.36878902 0.21210635 0.77500004 4285890696
0.38066757 0.21227081 0.77500004 4286352529
0.3159965 0.21694659 0.77900004 4288059283
0.34835455 0.2183722 0.7786001 4287532945
0.35349354 0.21768244 0.7766667 4287138446
0.37785664 0.2171886 0.77500004 4286089100
0.34384745 0.22248055 0.77900004 4286811013
0.34740296 0.22204943 0.77733332 4286744969
0.35113204 0.2249005 0.77600002 4286548107
0.33962849 0.22988893 0.77900004 4279508754
0.34266132 0.22768202 0.7775715 4282535740
0.34724158 0.22661689 0.7768572 4285561967
0.35070506 0.22673211 0.77500004 4286483577
0.33967429 0.23414999 0.77900004 4281020974
0.34220606 0.23201735 0.77600002 4285363821
0.31531844 0.23545069 0.77700001 4285020981
0.33874908 0.23810121 0.77800006 4288126873
0.34191641 0.23784037 0.77583337 4284508001
0.34654769 0.23729357 0.77500004 4286021242
0.31750444 0.24183352 0.77700001 4287379006
0.33694607 0.24260418 0.77885723 4283187001
0.34133223 0.24249017 0.77600002 4282006828
0.34207979 0.24734461 0.77675003 4289627003
0.32271126 0.25315166 0.77900004 4288629075
0.33883321 0.25334704 0.77900004 4288359488
0.34247759 0.25288042 0.77642858 4289018442
0.33908629 0.25609419 0.77866673 4287834173
0.34313795 0.25807509 0.77800006 4288884547
0.34694722 0.25811765 0.77620006 4289016130
0.35332406 0.25868437 0.77500004 4289015877
0.35619155 0.25802273 0.77500004 4288688710
0.3430697 0.26287434 0.77850008 4287182142
0.34772697 0.26239717 0.77683336 4288098106
0.35228211 0.2608014 0.77500004 4289016899
0.35683233 0.26104617 0.77550006 4289147974
0.34289905 0.26591691 0.778 4288522652
0.34803563 0.26632321 0.77640003 4285626222
0.36133438 0.26969707 0.77550006 4279974446
0.34862441 0.27154404 0.77850008 4280568627
0.35331154 0.27307248 0.77800006 4280503859
0.35795537 0.27271342 0.77700007 4280372018
0.36112538 0.27332476 0.77566671 4280307508
0.33166391 0.27894384 0.77900004 4281491022
0.35329536 0.27718106 0.77900004 4280176437
0.35652256 0.27745351 0.77650005 4280505660
0.36137936 0.27712247 0.77525008 4280636989
0.33084747 0.28036985 0.77700001 4281817936
0.35329911 0.28235999 0.77780002 4280703555
0.35761294 0.28217497 0.77580005 4283531374
0.3626816 0.28259456 0.77544451 4283201381
0.33830464 0.2876595 0.77900004 4280638543
0.34397361 0.28919896 0.77700001 4280705617
0.3478494 0.28775194 0.77725005 4280574025
0.35266557 0.28621259 0.77716666 4280704068
0.35752264 0.28649971 0.77666664 4281230160
0.36039776 0.28668618 0.77500004 4281033038
0.32371238 0.058776587 0.78300005 4283509294
0.32837397 0.058851682 0.78400004 4283974726
0.33220115 0.058777217 0.78300005 4286212973
0.33799663 0.058678996 0.7816667 4288978338
0.35364249 0.058639377 0.78100002 4287663248
0.31824765 0.06277813 0.78000003 4285607215
0.3390089 0.060978372 0.78400004 4284420633
0.34224725 0.061858963 0.7816667 4284552477
0.34620351 0.06180802 0.78100002 4284749854
0.35389528 0.062978037 0.78233337 4284749595
0.35516542 0.06189467 0.78200006 4284880153
0.36490861 0.064921692 0.78000003 4285276193
0.36704203 0.064925104 0.78000003 4285276193
0.34383714 0.068032943 0.78366679 4284488987
0.3476378 0.0670591 0.78362501 4284947742
0.35262248 0.067527898 0.78242868 4285078557
0.35578078 0.067108944 0.78100002 4285209886
0.34496832 0.072574116 0.78300005 4282392081
0.34738627 0.072414503 0.78125 4282326547
0.35259452 0.072397508 0.78100008 4283702554
0.35639879 0.073367506 0.78000003 4283898906
0.31748462 0.077900879 0.78333336 4284167208
0.34744263 0.077445947 0.78216672 4283310867
0.35212189 0.078020096 0.78128576 4282063629
0.35661471 0.076463833 0.78140002 4281080077
0.31694341 0.084124796 0.78200006 4282919708
0.34717104 0.082140386 0.78314292 4283901718
0.35275891 0.083017893 0.78133339 4282982674
0.35641557 0.083940797 0.78000003 4283441681
0.34307116 0.08748167 0.78350008 4284689437
0.34763002 0.087666452 0.78319997 4284296220
0.3528595 0.086961836 0.78060007 4283507218
0.3437773 0.092694066 0.78266674 4282917911
0.34690875 0.092030823 0.78059995 4281999120
0.35216889 0.09027788 0.78000003 4283507475
0.34360147 0.097944811 0.78225005 4280030988
0.34730843 0.097795829 0.78100002 4280754963
0.34287113 0.1022834 0.78300005 4280228881
0.34699035 0.10224677 0.78266668 4280754707
0.31482467 0.10742936 0.78200006 4285087023
0.31563008 0.10982822 0.78400004 4285414443
0.34234652 0.10812154 0.78300005 4284295963
0.34670267 0.10745999 0.78200006 4282199320
0.33905584 0.11303475 0.78400004 4284755227
0.34219828 0.11302265 0.78240001 4284427546
0.34626848 0.11208767 0.78100002 4282659097
0.34314647 0.11729817 0.78260005 4283835408
0.34583983 0.11776228 0.78000003 4283706648
0.3389557 0.12236707 0.78250003 4284558103
0.342572 0.12223893 0.78162509 4284956974
0.34585536 0.12410963 0.78000003 4287202682
0.33908531 0.12897903 0.78400004 4286610792
0.34306479 0.12781687 0.78333336 4286808693
0.34586683 0.12834194 0.78000003 4287270281
0.33909249 0.13216871 0.78400004 4286610795
0.34270614 0.13261548 0.78187507 4287467397
0.34663206 0.13213162 0.78049999 4287532424
0.3391054 0.13748553 0.7840001 4287134827
0.34232727 0.13780156 0.78228569 4287531131
0.34718722 0.13901813 0.78050005 4287399293
0.31544709 0.14266708 0.78350008 4284509042
0.33925426 0.14291523 0.78266668 4287398259
0.3423025 0.1418307 0.7815001 4287464055
0.3459371 0.1427568 0.7816667 4286411115
0.31444538 0.14644545 0.78100002 4286613633
0.33926693 0.14716317 0.78266668 4287728512
0.34253371 0.14764003 0.78137505 4287267195
0.34657186 0.14691468 0.78025001 4287661440
0.33870921 0.15005828 0.78300005 4286801756
0.34248433 0.15303352 0.78183335 4287727746
0.33831045 0.15798378 0.78366679 4287858818
0.34197149 0.15701851 0.78160006 4287661695
0.33815581 0.16250928 0.78360003 4287729290
0.34235501 0.16250914 0.78144449 4286477421
0.34599319 0.16222678 0.78000003 4286274127
0.33834633 0.16720574 0.78366667 4287796369
0.34240249 0.16782726 0.78150004 4287468945
0.34602496 0.16858682 0.78000003 4287337108
0.33922821 0.17260584 0.78400004 4287995032
0.34213111 0.17192948 0.78083342 4287797654
0.3460539 0.17388903 0.78000003 4287797656
0.31704009 0.17845564 0.78200006 4286943377
0.3425734 0.17744978 0.7817778 4288126360
0.34607223 0.17707124 0.78000003 4287929240
0.31664443 0.18140917 0.78100002 4287469462
0.3391315 0.18211775 0.78366679 4289176222
0.34211719 0.1825069 0.78066665 4287526264
0.34682098 0.18273522 0.78000003 4285618526
0.33830273 0.18771869 0.78333336 4286597199
0.34272259 0.18735944 0.78128576 4287585380
0.34741855 0.18568727 0.78050005 4287255130
0.33933702 0.19285984 0.7840001 4286595659
0.34227476 0.19253615 0.78150004 4287458674
0.31924438 0.19758284 0.78200006 4288717470
0.33936414 0.19712788 0.78400004 4292130232
0.34257802 0.19759309 0.78150004 4288717985
0.31906563 0.20276746 0.78150004 4288389277
0.32008609 0.20341729 0.78400004 4288323997
0.34340346 0.2026097 0.7816667 4288717729
0.34623411 0.20043384 0.78000003 4288455586
0.31929719 0.20821634 0.78200006 4288126361
0.33944783 0.20887426 0.78400004 4288190101
0.34244007 0.20747378 0.78162509 4288319632
0.31972936 0.21274424 0.78300005 4287928468
0.34265918 0.21253426 0.78240001 4288113008
0.34721041 0.21262547 0.78100002 4287654257
0.3172265 0.21991152 0.78200006 4288651420
0.32015663 0.21621734 0.78400004 4287862418
0.33952653 0.21849576 0.78400004 4287993235
0.34312028 0.2176424 0.78175008 4287003771
0.34708929 0.21604685 0.78000003 4286145639
0.31744984 0.22325139 0.78250003 4287138949
0.33956495 0.22277574 0.7840001 4287073929
0.34189042 0.22277534 0.78240001 4287073672
0.31807977 0.22688162 0.78400004 4282731584
0.33702531 0.22781731 0.78299999 4280496160
0.3402496 0.2271308 0.78050005 4281154602
0.31752542 0.23391293 0.78250003 4284046671
0.33419037 0.23171145 0.78300005 4287732626
0.33729371 0.23258097 0.78100008 4283389775
0.34008715 0.23231697 0.78000003 4288324250
0.33410776 0.23784439 0.78300005 4284770401
0.33669987 0.23735809 0.78033334 4283784793
0.31952864 0.24125358 0.78200006 4286068025
0.33295256 0.24229971 0.78220004 4283117612
0.32093456 0.24918465 0.78000003 4288169038
0.33406198 0.24649183 0.78233337 4287574325
0.33797404 0.24836822 0.78133339 4288103237
0.34069881 0.2475857 0.78099996 4287319625
0.32475936 0.25263011 0.78400004 4288627020
0.33703375 0.25183493 0.78240001 4287972174
0.34031814 0.25154611 0.78000003 4288163386
0.32573995 0.25810537 0.78100002 4288958292
0.33693504 0.2574985 0.78200001 4290742938
0.3283397 0.26060626 0.78200006 4284628282
0.33032873 0.26368377 0.78150004 4286017381
0.33857688 0.26156703 0.78233337 4291073444
0.34100214 0.26173002 0.78000003 4287052359
0.33123273 0.26866424 0.78350008 4280962617
0.33920786 0.26504859 0.78200006 4286673264
0.34273016 0.26849866 0.78250003 4283986784
0.34620556 0.26895714 0.78050005 4280498985
0.32986203 0.27497149 0.78000003 4281162569
0.33108276 0.27279609 0.78300005 4281030209
0.34388626 0.27282733 0.78250003 4280241457
0.34637183 0.27227247 0.78075004 4280503860
0.35321504 0.27157193 0.78150004 4279910697
0.35757303 0.27165374 0.78150004 4279909672
0.34388754 0.27730098 0.7840001 4280242487
0.34772119 0.27674872 0.78116673 4281623884
0.351776 0.2765941 0.78050005 4280570681
0.33475399 0.28400442 0.78100002 4283003492
0.33644214 0.2827034 0.78333336 4283530348
0.34467807 0.28092 0.78400004 4280768065
0.34838411 0.28259912 0.78242862 4281097799
0.35135177 0.28071442 0.78100008 4281163593
0.33804852 0.28621912 0.78100002 4281361239
0.34232423 0.28683355 0.78250003 4284189564
0.34671333 0.28695732 0.78140002 4280572742
0.36934713 -0.015514886 0.78500003 4283849037
0.3270818 0.059001736 0.78600001 4283971900
0.32241324 0.061053589 0.78500003 4285211687
0.33816797 0.062276434 0.78700006 4284750108
0.32151136 0.065556809 0.78800005 4285541422
0.33824328 0.067695148 0.78800005 4284947741
0.34172726 0.067894287 0.78616667 4284685852
0.33831951 0.072767846 0.78900003 4283380783
0.34237564 0.072926462 0.78683335 4282720277
0.33774999 0.077624559 0.78766674 4283579954
0.34230796 0.077173851 0.78666669 4283769878
0.34585229 0.075950585 0.78500003 4283375888
0.32191759 0.082740143 0.78900003 4281934097
0.33783865 0.082234934 0.78820008 4284098070
0.34221527 0.082480319 0.78644454 4284426520
0.34586081 0.08446072 0.78500003 4284426779
0.31856436 0.086684465 0.78600001 4284232486
0.33904314 0.088090554 0.78900003 4284557337
0.34117448 0.087813482 0.78650004 4284491544
0.34586319 0.086588375 0.78500003 4284755230
0.33261803 0.093431495 0.78900003 4280228876
0.33904567 0.09129782 0.78900003 4283573270
0.34096169 0.092018746 0.78600001 4284098330
0.31950983 0.097621433 0.78833342 4281807913
0.33476162 0.09557084 0.78900003 4280229138
0.33870643 0.097611584 0.78820002 4279833866
0.34135413 0.096966721 0.78640002 4279899401
0.31937516 0.10291652 0.78800005 4282005808
0.33819434 0.10279769 0.787 4280754714
0.34182727 0.10260763 0.78550005 4280426776
0.33820024 0.10706406 0.787 4282459415
0.34161574 0.1067977 0.78500003 4282854429
0.31623456 0.11323135 0.78550005 4284959282
0.33771816 0.11213339 0.7872858 4284820507
0.31704086 0.11778709 0.78750002 4284233501
0.33778635 0.11758179 0.78600007 4286793780
0.34163147 0.11637508 0.78500003 4286729015
0.31744498 0.12220835 0.78850007 4285478442
0.33264524 0.1233686 0.78900003 4283640845
0.33715212 0.12199707 0.78700006 4284165398
0.31697786 0.12736282 0.78733331 4286399285
0.33376944 0.12715605 0.78860009 4282929963
0.33731446 0.12721726 0.78628582 4284172331
0.31684694 0.13263983 0.78700006 4286345574
0.33480519 0.13192859 0.78900003 4284826400
0.33706579 0.13262503 0.78675008 4286273852
0.31631437 0.13773753 0.7856667 4284377712
0.33460319 0.13719 0.78850007 4287520839
0.33696753 0.13684955 0.7865001 4286736467
0.33418232 0.14204627 0.78875005 4286466104
0.33726585 0.14230382 0.78716677 4286409308
0.33462721 0.14788532 0.78850007 4284165150
0.33720773 0.14761177 0.78700006 4284759601
0.33485344 0.15333027 0.78900003 4286659109
0.33792821 0.15278666 0.78614289 4286531128
0.3345829 0.15748042 0.78833342 4286597949
0.33627248 0.15702103 0.78600001 4286729535
0.31983528 0.1629269 0.78900003 4286746515
0.33488616 0.16403764 0.78900003 4285563524
0.33618179 0.16256088 0.78700006 4287071105
0.31930646 0.1679908 0.78766674 4286614928
0.33716765 0.16785303 0.78675008 4287467406
0.31864393 0.17296848 0.78600001 4287272084
0.3338879 0.17294434 0.78860009 4287335563
0.33716545 0.17265256 0.78720003 4287862162
0.31824708 0.17594539 0.78500003 4287403669
0.3336491 0.17784867 0.78850007 4287795854
0.33789024 0.17727065 0.78583336 4288191895
0.33495313 0.1811817 0.78900003 4288452758
0.33721152 0.18226412 0.78620005 4287991691
0.32185364 0.18851137 0.78850007 4286739318
0.3334907 0.18951474 0.78800005 4288507506
0.33671802 0.18709281 0.78675008 4288770678
0.32187039 0.19279566 0.78850007 4288251786
0.33329633 0.19260666 0.78750002 4287783787
0.3366437 0.19207951 0.78525001 4288705402
0.32086316 0.19538884 0.78600001 4285162337
0.33403015 0.19674337 0.78833342 4287655799
0.33739871 0.19788241 0.7858572 4287721846
0.33462939 0.20023811 0.78800005 4283120705
0.33698359 0.20353206 0.78740007 4288848801
0.34083784 0.20254456 0.7856667 4288849057
0.33468428 0.20881972 0.78800005 4288060828
0.33762738 0.20723553 0.78733331 4288455584
0.33779618 0.21243238 0.78637499 4287924106
0.32180336 0.21946625 0.78800005 4287599246
0.33712682 0.21722186 0.78725004 4286676350
0.33350316 0.22370496 0.78750002 4286744965
0.33695567 0.2223042 0.78700006 4286810760
0.31931192 0.22989492 0.78700006 4281218345
0.33345485 0.22737186 0.78680003 4283456079
0.33699194 0.22531715 0.78550005 4286942598
0.31892157 0.23174571 0.78600001 4281547311
0.33192903 0.23285784 0.787 4281944122
0.32213908 0.23787633 0.78850007 4286539610
0.33198088 0.23736134 0.78720009 4283127883
0.32264411 0.24173249 0.78700006 4287182908
0.32935768 0.24409492 0.78750002 4287507509
0.33098227 0.24211757 0.78625005 4285480246
0.32349834 0.24690484 0.78633338 4288101702
0.32798085 0.24800675 0.78800005 4288230721
0.33192843 0.24842949 0.78680003 4288295484
0.32715395 0.25196233 0.78633338 4288624709
0.33221102 0.25237736 0.78633338 4288823631
0.33599189 0.25307578 0.78500003 4294954971
0.32778782 0.25652701 0.78600001 4288364875
0.33228832 0.25646281 0.78900003 4288886083
0.33559367 0.2573193 0.78650004 4289943399
0.33318463 0.26147747 0.78666669 4287707712
0.33698937 0.26324943 0.7853334 4286858829
0.33443251 0.26739252 0.78600001 4283854425
0.33769435 0.26743877 0.78600007 4285298795
0.34054169 0.26822451 0.78500003 4289179813
0.33752623 0.27243716 0.78800011 4280569396
0.3423436 0.27248028 0.78600007 4280174639
0.33418381 0.27892917 0.78500003 4281294155
0.33786771 0.27729097 0.78760004 4280702270
0.34155941 0.27768588 0.78575009 4281952593
0.3385638 0.2817477 0.78666669 4282213973
0.34240639 0.28275299 0.78625005 4284912513
0.34515756 0.28344664 0.78500003 4280505153
0.34519824 0.28561619 0.78500003 4280505155
0.37528265 -0.024271453 0.79300004 4280163597
0.32487729 0.063663185 0.79100001 4285737517
0.32801041 0.062288046 0.79166669 4285407523
0.33206916 0.062870979 0.79180008 4285275936
0.33588597 0.06287013 0.79000002 4284882206
0.32314309 0.068035223 0.79200006 4285344041
0.33450514 0.067088768 0.79350007 4285276447
0.33631113 0.066521585 0.79100007 4285145119
0.3224625 0.072173387 0.79033333 4284623656
0.3330982 0.072774932 0.79220003 4284300087
0.33602852 0.072748937 0.79075003 4284035888
0.32334599 0.077738971 0.79250002 4285020974
0.33386013 0.077496983 0.79366666 4281411613
0.33631492 0.077237546 0.79100007 4282464304
0.32314172 0.080909081 0.79200006 4284956208
0.32668909 0.082512535 0.79366666 4284758825
0.33314392 0.082513787 0.79366666 4282654479
0.33592701 0.083434962 0.79050004 4283114002
0.32166347 0.087233126 0.79100001 4283115803
0.32999864 0.089605831 0.79300004 4284821021
0.33286563 0.087815456 0.79300004 4282851342
0.33646595 0.088255823 0.79049999 4283376660
0.32059056 0.092593268 0.79100001 4285088567
0.32900453 0.093108602 0.79233336 4283903006
0.33238631 0.091524348 0.79100001 4280489991
0.33743593 0.092511289 0.79025 4281605647
0.32375413 0.097184919 0.79350007 4283447084
0.32784861 0.097125389 0.79300004 4282133022
0.33207366 0.096790582 0.79025006 4280361237
0.33636835 0.098935135 0.79025 4280426519
0.32368702 0.10253964 0.79333335 4282071602
0.32826471 0.10047483 0.79400003 4280228885
0.33216196 0.10241839 0.79237509 4280953123
0.33519191 0.10318518 0.79000002 4280754973
0.3207944 0.10766458 0.79150003 4283972908
0.3334465 0.10794057 0.79350007 4282266665
0.33562022 0.10760336 0.79100001 4282130710
0.32160604 0.11223514 0.79350007 4284691745
0.32827127 0.11338393 0.79400003 4286200615
0.33230346 0.11329214 0.79333335 4285674530
0.33562472 0.1118912 0.79100001 4285148703
0.32181013 0.11660796 0.79400003 4285549365
0.33188784 0.11744216 0.79233336 4286530094
0.33534825 0.1171517 0.79033333 4286398252
0.32918715 0.12260419 0.79100001 4283780911
0.33191243 0.12219883 0.79066664 4284432677
0.33542615 0.12253395 0.79050004 4284230673
0.32919186 0.12689364 0.79100001 4284175145
0.33178037 0.12785941 0.79033333 4283783472
0.32829165 0.13490415 0.79400003 4286200350
0.33182707 0.13275395 0.79214293 4285680938
0.33523348 0.13423805 0.79000002 4286598960
0.32829452 0.13705665 0.79400003 4285675551
0.33170426 0.13776302 0.7918334 4287320118
0.32182866 0.14242977 0.79400003 4285098861
0.33236253 0.14238617 0.79166669 4286330915
0.32115972 0.14750068 0.79233336 4286610550
0.33317122 0.14706746 0.79220003 4285609252
0.32062688 0.15261267 0.79100001 4287008136
0.33366647 0.1533829 0.79300004 4286659882
0.33527204 0.15138102 0.79000002 4286329118
0.3205007 0.15790902 0.79066676 4287206288
0.32833323 0.15858872 0.79400003 4286484109
0.33188534 0.15715878 0.79216671 4286210910
0.33286831 0.16270494 0.7930001 4285431942
0.33530354 0.16210096 0.79000002 4285693826
0.33212659 0.16801387 0.79266673 4286023051
0.33532175 0.16746292 0.79000002 4286481030
0.33175558 0.17211947 0.79175001 4287008144
0.32385492 0.17785552 0.79350007 4287140756
0.33093134 0.17707095 0.79180002 4287401870
0.32346362 0.18301085 0.79250002 4287074448
0.3319492 0.18266356 0.79285717 4288058002
0.33581194 0.18379062 0.79100001 4288979102
0.32286236 0.18588708 0.79100001 4286277481
0.33364591 0.18775505 0.79266673 4287061603
0.33561507 0.18689692 0.79050004 4286601052
0.32626924 0.19091383 0.79400003 4284430398
0.33180729 0.1925322 0.79166669 4285084474
0.32588601 0.19713674 0.79300004 4287067511
0.33152652 0.19780053 0.79266673 4287327605
0.32649961 0.20280588 0.79266673 4288258205
0.33259806 0.20262837 0.7924 4287797403
0.33549178 0.20289651 0.79000002 4286214259
0.32552817 0.20765759 0.792 4288126619
0.33252665 0.20762372 0.79171431 4287731866
0.32535279 0.21291253 0.79150003 4287929240
0.33299574 0.21276391 0.79320008 4287468948
0.33556387 0.21365412 0.79000002 4287731863
0.32558435 0.21735871 0.79200006 4287862933
0.33368278 0.21786337 0.79233336 4287337105
0.32304224 0.22245619 0.79100001 4287665040
0.32774487 0.22178911 0.79366666 4287205518
0.33249012 0.22243959 0.792 4286942348
0.33561251 0.22011445 0.79000002 4287008140
0.32388815 0.22734006 0.79300004 4286876545
0.33111387 0.22771156 0.79260004 4286679682
0.32372266 0.23259702 0.79250002 4281219113
0.32807076 0.23317078 0.79250008 4280825380
0.3306942 0.23113811 0.79100001 4284246615
0.32313451 0.23539358 0.79100001 4281482289
0.3275412 0.23664741 0.79219997 4280365855
0.3300817 0.23790699 0.79200006 4280235040
0.32494721 0.24158299 0.79000002 4287182908
0.327692 0.24159706 0.79140007 4287125325
0.33010119 0.24007012 0.79200006 4281549859
0.32716763 0.24699974 0.79000002 4288297283
0.33273524 0.25895306 0.79000002 4288952646
0.33866423 0.27765128 0.79050004 4281031232
0.32831803 0.0673654 0.79675007 4285474342
0.33211267 0.067258105 0.79550004 4285276448
0.32842144 0.072781995 0.79700011 4284228384
0.33167842 0.072130457 0.79575002 4283965983
0.32800847 0.078081548 0.79600006 4284559138
0.33168557 0.07837645 0.79533339 4282131478
0.32867372 0.081215635 0.79500002 4284558365
0.33240584 0.081968315 0.79533339 4283573013
0.32436556 0.087676957 0.79500002 4283115286
0.32822448 0.087356195 0.79600006 4283968282
0.33190781 0.085524134 0.79500002 4284295962
0.32477382 0.094256885 0.79600006 4286137399
0.32711688 0.091893129 0.79733342 4285675305
0.32751504 0.10212222 0.79566669 4280886815
0.33083615 0.10275652 0.79500002 4280229914
0.32436809 0.10706215 0.79500002 4283186733
0.32761005 0.107526 0.79614288 4283905065
0.33083928 0.10814223 0.79500002 4282989360
