# .PCD v0.7 - Point Cloud Data file format
VERSION 0.7
FIELDS x y z rgba
SIZE 4 4 4 4
TYPE F F F U
COUNT 1 1 1 1
WIDTH 1091
HEIGHT 1
VIEWPOINT 0 0 0 1 0 0 0
POINTS 1091
DATA ascii
0.30471146 0.081974022 0.76200002 4283969060
0.37632808 0.080213495 0.76400006 4290231473
0.37749296 0.09346009 0.76200002 4289640365
0.30343801 0.11116593 0.76400006 4287788644
0.30345246 0.1442901 0.76400006 4288318332
0.30246264 0.14691354 0.7615 4288518033
0.37742579 0.15855101 0.76100004 4290363840
0.30401507 0.1847726 0.76000005 4288322980
0.37513342 0.18737572 0.76000005 4290166204
0.3057012 0.20650879 0.76400006 4287468185
0.37768117 0.22608359 0.76400006 4283653207
0.37734506 0.23419397 0.76300001 4282929225
0.37693456 0.2380897 0.76200008 4286018932
0.37590525 0.24499926 0.76400006 4286870905
0.37545797 0.24678668 0.76300001 4286870645
0.31364092 0.25386593 0.76200002 4285033058
0.37340155 0.25095972 0.76300001 4290283660
0.36837381 0.26073956 0.76100004 4286088313
0.36782283 0.26807216 0.76400006 4282408525
0.36787352 0.27019224 0.76400006 4283593827
0.3215715 0.27839378 0.76000005 4280700988
0.35957909 0.28272057 0.76400006 4280311110
0.36621946 -0.025490772 0.76500005 4279637771
0.39884117 -0.0089349803 0.76700002 4280494106
0.31273636 0.057542596 0.7665 4285944141
0.31751111 0.055569958 0.76800001 4287728774
0.32957411 0.055499058 0.76700002 4287072903
0.33291674 0.055536352 0.76750004 4287664527
0.35089558 0.055584807 0.76800001 4287929242
0.35975331 0.057751562 0.76900005 4287072135
0.3618561 0.057754509 0.76900005 4288059544
0.36826366 0.057616018 0.76700008 4285350980
0.37564653 0.062833026 0.76700002 4288910473
0.37663603 0.067168117 0.76900005 4284108870
0.30959406 0.074393474 0.76900005 4281544485
0.3758333 0.072228439 0.76733333 4282796094
0.30591056 0.084369168 0.76500005 4284364072
0.37756997 0.083598927 0.7665 4285626990
0.37974018 0.098175019 0.7665 4289443246
0.38075 0.10260504 0.76850003 4288588194
0.37953144 0.1064343 0.76600003 4288127384
0.3805382 0.10984261 0.76800001 4288917159
0.30542395 0.11397686 0.76900005 4288387470
0.30462971 0.11575843 0.76700002 4288255371
0.38057789 0.11714883 0.76800001 4287074186
0.37937602 0.12301108 0.76550007 4288322455
0.38010046 0.12012424 0.76700002 4288455323
0.37914777 0.12605231 0.76500005 4288189586
0.38015252 0.12846825 0.76700002 4288586141
0.38116485 0.1319415 0.76900005 4288981924
0.38103652 0.13711394 0.76866674 4288387989
0.30424491 0.14259158 0.76600003 4286804835
0.38074517 0.14222187 0.76800001 4288716697
0.38045636 0.1473238 0.76733333 4288849312
0.37984842 0.15332808 0.76600003 4289705136
0.38032606 0.15143804 0.76700002 4289374629
0.3796286 0.1563572 0.76550007 4289574066
0.37933919 0.16858779 0.76900005 4287798174
0.37856027 0.17241175 0.76733333 4287732123
0.37943923 0.17803466 0.76900005 4288718760
0.30600834 0.18391083 0.76500005 4289175463
0.37818336 0.18264991 0.76633334 4289310895
0.37757546 0.18651634 0.76500005 4290758341
0.37601364 0.19301939 0.76600003 4287074198
0.37655938 0.19747154 0.76700002 4287139476
0.37742782 0.20732871 0.76850003 4289310388
0.30405524 0.21509416 0.76500005 4281875779
0.37901729 0.21853502 0.76700002 4290560966
0.3786321 0.22456788 0.76600003 4286284417
0.37821403 0.22848526 0.76500005 4283521619
0.36195415 0.23149067 0.76900005 4284442979
0.3738009 0.23379827 0.76900005 4285165934
0.37777865 0.23282564 0.76725006 4284376928
0.3738783 0.23803341 0.76900005 4286678921
0.37654197 0.23773289 0.76783329 4285428594
0.35680056 0.24408731 0.76900005 4286197307
0.36490932 0.24391556 0.76800001 4286350210
0.36705741 0.24395418 0.76800001 4286350210
0.37176296 0.24011263 0.76900005 4282468169
0.37648237 0.24292079 0.76750004 4286874245
0.36494792 0.24603149 0.76800001 4285889659
0.36672488 0.24768478 0.76866674 4288717481
0.37620291 0.24655847 0.76900005 4290097846
0.37346759 0.25345308 0.76750004 4288104016
0.37629205 0.25080723 0.76900005 4286858318
0.3723439 0.2568621 0.76500005 4285885030
0.371714 0.2610108 0.76800001 4283519050
0.36919266 0.26593339 0.76700002 4282341190
0.32153195 0.27808028 0.76500005 4281754194
0.36425257 0.27894208 0.76500005 4280243261
0.36821818 0.27617931 0.76900005 4280834371
0.36262405 0.28138345 0.76600003 4280573508
0.35395736 0.28615481 0.76800001 4287809458
0.35579866 0.28511328 0.76500005 4285374088
0.36581904 -0.025754573 0.77300006 4279703048
0.36956906 -0.023631237 0.77200001 4279637771
0.38914794 -0.011096352 0.77300006 4280955173
0.32188433 0.055786982 0.77100003 4288387218
0.32696724 0.055763412 0.77066678 4287467403
0.33845037 0.055935733 0.77300006 4287731347
0.35755363 0.058071632 0.77333337 4287926928
0.36443347 0.057832744 0.77000004 4286019447
0.36701772 0.057911158 0.77100003 4285942861
0.37499306 0.059939705 0.77000004 4285085749
0.37253222 0.060216907 0.77366668 4284882464
0.3764585 0.062270034 0.77300006 4285544242
0.37436503 0.074847102 0.77300006 4281612336
0.37648618 0.073802613 0.773 4283519817
0.31160659 0.076973997 0.77400005 4282136621
0.3775866 0.077586047 0.77233332 4283915090
0.37888151 0.082253203 0.77350008 4283389772
0.30870923 0.087232552 0.77200001 4285284404
0.38054034 0.0884462 0.77250004 4284442462
0.3810488 0.092759594 0.77350008 4285495152
0.38130763 0.095972829 0.77400005 4286021753
0.38135377 0.10648424 0.77400005 4285824888
0.38154581 0.11326775 0.77000004 4287140749
0.30582154 0.11829741 0.77000004 4288518289
0.30674911 0.12283924 0.77233338 4288386441
0.37076029 0.12115337 0.77400005 4287008657
0.38144255 0.12331264 0.77400005 4287008144
0.30641973 0.12793389 0.77149999 4287398001
0.37079167 0.12746254 0.77400005 4287271571
0.38097516 0.12735736 0.77300006 4285363061
0.30701736 0.13237259 0.77300006 4287726708
0.35804895 0.13160835 0.77400005 4286658083
0.30662322 0.13743065 0.77200001 4287395944
0.30622908 0.14143263 0.77100003 4287331179
0.3814036 0.14220135 0.77366668 4286281846
0.38136148 0.1474372 0.77350008 4287336850
0.35284999 0.15471572 0.77400005 4287465858
0.36757174 0.15212175 0.77320004 4287469210
0.37124407 0.15315303 0.77350008 4286615189
0.38132206 0.15266989 0.77333337 4286416005
0.35251096 0.15751928 0.77399999 4287859847
0.36286372 0.15840793 0.77375007 4287075225
0.36778641 0.1590189 0.77400005 4287075997
0.38119355 0.15681742 0.77300006 4287798173
0.35986853 0.16086617 0.77300006 4287469470
0.36326572 0.16152211 0.77266669 4287338913
0.36769074 0.16212721 0.77375007 4287010208
0.37979123 0.16460595 0.77000004 4285891721
0.38074788 0.16187432 0.77200007 4286417808
0.36332688 0.1652029 0.77350008 4286747038
0.38030481 0.16692275 0.77100003 4285891207
0.35829106 0.17370091 0.77400005 4286615712
0.37967721 0.17177463 0.77400005 4287273375
0.35830694 0.17580888 0.77400005 4286287775
0.3795794 0.17803483 0.77366668 4286482573
0.30919868 0.18268463 0.773 4287000183
0.35152072 0.18395595 0.77300006 4285826457
0.36478826 0.18430117 0.77400005 4285959071
0.37931022 0.18316016 0.77300006 4287140760
0.35305789 0.1863111 0.77400005 4285695640
0.36395112 0.18773268 0.77366668 4285630879
0.36697087 0.18854558 0.77400005 4285827487
0.37934658 0.18632838 0.77300006 4286877588
0.36270818 0.19061626 0.77400005 4285367711
0.37805137 0.19232859 0.77166671 4287140506
0.37782547 0.19818494 0.77400005 4285957006
0.36925596 0.20125613 0.77400005 4286945452
0.37810409 0.20351371 0.77000004 4289706173
0.35648209 0.20957515 0.77400005 4285301920
0.30851278 0.21049827 0.77100003 4287665563
0.36834121 0.21395241 0.77400005 4285432471
0.37822753 0.21195726 0.77000004 4289440430
0.30645177 0.21887989 0.77100003 4281349689
0.35443619 0.21801716 0.77400005 4284381069
0.35708648 0.21875972 0.77275002 4284380817
0.36144122 0.21871562 0.77366668 4284709782
0.37878448 0.21646546 0.77100003 4287205526
0.30687407 0.22336806 0.77200001 4287599509
0.3544873 0.22225381 0.77400005 4284512395
0.35713932 0.22299305 0.77275008 4284709260
0.36194205 0.22260341 0.77340001 4285563798
0.38055378 0.22256434 0.77000004 4287731866
0.35353899 0.22770019 0.77333337 4284905096
0.35755879 0.22850816 0.77350008 4285299083
0.36303318 0.22838111 0.77280003 4284771695
0.36750776 0.22728971 0.77320015 4286284420
0.3724685 0.22819723 0.77166671 4284639337
0.37745368 0.22741203 0.77233338 4284968301
0.34933472 0.23400347 0.77333337 4281482800
0.35294199 0.23244087 0.77266675 4281747257
0.35725018 0.23221949 0.77171433 4282076477
0.36158603 0.23261341 0.77140003 4284180064
0.36776683 0.23228556 0.7705 4284442211
0.37221593 0.23202175 0.77025002 4284508004
0.37783426 0.23120528 0.77075005 4284113500
0.30869004 0.23780732 0.77100003 4287262057
0.34887904 0.23778254 0.773 4283061829
0.35305321 0.23776518 0.77275002 4279906073
0.35723215 0.23775095 0.77250004 4280037919
0.36221766 0.23757745 0.77166671 4284969579
0.3674002 0.23753715 0.77125001 4285100398
0.37184995 0.2370863 0.77020001 4284639335
0.31045452 0.24382477 0.77000004 4288173149
0.34808803 0.24297078 0.77266669 4286803566
0.35226399 0.24278207 0.77185714 4286398785
0.35740006 0.24214014 0.77037501 4286012246
0.36283204 0.24253325 0.7705 4285164908
0.36699814 0.24146725 0.77025008 4285099372
0.37211609 0.24263109 0.77028573 4285625976
0.3441304 0.24969958 0.77400005 4293188836
0.34639329 0.24753018 0.77240002 4289174692
0.35210088 0.24833673 0.77266669 4286656327
0.35762811 0.24779792 0.77066666 4286729563
0.36292428 0.24783623 0.7705 4287664791
0.37242875 0.24753189 0.77100003 4288257186
0.37560353 0.24848233 0.77066678 4288188053
0.35351241 0.25279555 0.77325004 4291660967
0.35760731 0.25206155 0.77140009 4290346386
0.36250138 0.2523827 0.77079999 4286394694
0.36803117 0.2526564 0.77200001 4286264131
0.37260008 0.25290391 0.77250004 4287706180
0.37510285 0.25141448 0.77100003 4287576648
0.35358474 0.25705412 0.77325004 4287967049
0.35766619 0.25696492 0.77275008 4287968585
0.36270985 0.25681439 0.77200001 4288296521
0.36744407 0.25704417 0.7713334 4288231496
0.37233445 0.25752035 0.77250004 4288036681
0.35290548 0.26048353 0.77400005 4287574080
0.35659748 0.26206747 0.77375007 4286396738
0.36263004 0.26066262 0.77400005 4288033859
0.36735725 0.26133314 0.77250004 4286133050
0.37099791 0.26198235 0.77099997 4285483593
0.31963113 0.26958653 0.77100003 4281161025
0.36908206 0.26918685 0.77350008 4281093946
0.37033692 0.26616913 0.77400005 4282996553
0.36880943 0.27223864 0.77200001 4280964670
0.37003011 0.27332386 0.77300006 4281687108
0.32227078 0.27633762 0.77200001 4281423683
0.36705649 0.27898702 0.77100003 4280769345
0.36223468 0.28457865 0.77200007 4280639046
0.36588484 0.28180605 0.77300006 4280638272
0.34805092 0.28819591 0.77400005 4282348381
0.35192835 0.28791866 0.77300006 4281033292
0.35698697 0.28564933 0.77233332 4280113217
0.37100175 -0.01742045 0.77500004 4279571976
0.3162083 0.058176547 0.77500004 4284293151
0.34359059 0.056263126 0.77750003 4287468432
0.34737539 0.056193598 0.77649999 4286876552
0.35137653 0.056160852 0.77600002 4287337104
0.35500976 0.058342155 0.77700001 4287596935
0.31492057 0.062537082 0.77700001 4285344293
0.35865346 0.060529672 0.77800006 4284684313
0.36239505 0.061212707 0.77766675 4285276193
0.36751333 0.06134063 0.77740002 4285341732
0.37262869 0.063456073 0.77740008 4285144607
0.37650099 0.063912027 0.77600002 4285476910
0.3687112 0.069070309 0.77900004 4287007623
0.37282947 0.068129234 0.77779996 4287201660
0.37747249 0.06788215 0.77725005 4287529596
0.35806835 0.073276572 0.77900004 4285343012
0.36019599 0.073279917 0.77900004 4284291867
0.37312609 0.071982458 0.77840006 4283389776
0.37684259 0.0716924 0.77666664 4284309335
0.31361905 0.079581618 0.77900004 4283379749
0.3586292 0.076764561 0.77866673 4284948510
0.36180267 0.07856334 0.77900004 4285221189
0.36783057 0.078686103 0.778 4283520848
0.37242657 0.077092871 0.77724999 4282665796
0.37605295 0.078547239 0.77500004 4284310106
0.36345115 0.082369149 0.77833343 4286282612
0.36736867 0.082800008 0.77700001 4283455312
0.37241492 0.082680933 0.77775007 4283323983
0.37703839 0.082466125 0.77759999 4283455311
0.31030828 0.089786753 0.77600002 4285219381
0.36448377 0.08701919 0.77900004 4284902754
0.3674832 0.088108897 0.77687496 4284903015
0.37242508 0.087871172 0.77700001 4284705636
0.3772583 0.087312162 0.77816671 4284705635
0.38036489 0.086788818 0.77649999 4285297771
0.31070757 0.093061231 0.77700007 4285816141
0.36195004 0.092191011 0.7781111 4286670939
0.36767909 0.09299098 0.77759999 4287008394
0.37256378 0.093264163 0.77800006 4287139980
0.37787613 0.093007147 0.77866673 4286613379
0.38160825 0.092354357 0.77900004 4286350718
0.31110692 0.096341133 0.77800006 4285749828
0.35811776 0.098625161 0.77900004 4285804823
0.36214533 0.097516708 0.77850008 4284828229
0.36771017 0.096537367 0.77900004 4284969077
0.37195921 0.097643793 0.77760005 4285561726
0.37747687 0.097340025 0.77840006 4285363573
0.38168859 0.097828485 0.77766675 4285627256
0.35868278 0.10210475 0.77866673 4286069795
0.36188093 0.10246608 0.77866673 4285619026
0.37250227 0.10240452 0.77725005 4285694084
0.37733516 0.10156602 0.77674997 4286154119
0.38195226 0.10224881 0.77700007 4285628286
0.36274159 0.10790972 0.77880007 4285623397
0.3679471 0.10791332 0.77716666 4285957512
0.37265858 0.10730199 0.77720004 4286811790
0.3780396 0.10666883 0.7786001 4286482823
0.38147154 0.10748485 0.77750003 4286680456
0.35822818 0.11274705 0.77800006 4286134819
0.36243916 0.11205392 0.77674997 4287007103
0.36738473 0.11266494 0.77537501 4287074961
0.37243739 0.11258747 0.77580005 4287008911
0.37762937 0.11193983 0.77800006 4286352011
0.38215324 0.11227885 0.77775007 4286286728
0.35390216 0.11551992 0.77900004 4286403644
0.35750666 0.11742869 0.77755558 4286530863
0.36304107 0.11751637 0.77800006 4287332467
0.36739978 0.11792137 0.77657145 4287468690
0.37279055 0.11761755 0.77560008 4286942865
0.37752807 0.11742666 0.77700001 4285694598
0.38205793 0.11752208 0.77750009 4285562754
0.35392791 0.12397527 0.77900004 4286864711
0.35749885 0.12269568 0.77749997 4286332716
0.36306244 0.12279394 0.77800006 4287859842
0.36808428 0.12271166 0.77733332 4287666323
0.37298968 0.12282573 0.77566671 4286943122
0.37779728 0.12278412 0.77750003 4285759878
0.3811537 0.12226985 0.77633333 4285693314
0.34755132 0.12818348 0.77900004 4283779382
0.35325703 0.12690255 0.77750003 4287325516
0.35738152 0.12756529 0.77662498 4286660136
0.36193544 0.12732467 0.77600002 4287727997
0.3675665 0.12744671 0.77562505 4287600531
0.37323302 0.12775965 0.77575004 4287008657
0.37802222 0.12812825 0.77625 4286219657
0.38078704 0.12589081 0.77700001 4286086788
0.34755766 0.13029736 0.77900004 4283320115
0.3539575 0.13243331 0.77900004 4286596140
0.35652098 0.13278019 0.77683336 4286658592
0.36247748 0.13241847 0.7762 4287924606
0.36733222 0.13263667 0.77628571 4287863445
0.37272665 0.1330272 0.77575004 4287403158
0.37747663 0.13278578 0.77540004 4286285964
0.38177362 0.13347648 0.77600002 4287140497
0.34754702 0.13775539 0.77733332 4284438851
0.35246107 0.1370841 0.7766 4285350957
0.35747945 0.13749234 0.77639997 4286462242
0.36242783 0.13732199 0.77650005 4287990652
0.36784256 0.13737895 0.7766667 4288060567
0.37287152 0.13728996 0.77600002 4287271573
0.37763977 0.1374929 0.77700001 4286220172
0.38156465 0.13738772 0.77625 4286942862
0.34737843 0.14264664 0.77714294 4284899405
0.35224134 0.14306188 0.77700001 4285950038
0.35730159 0.14264208 0.77688891 4287455825
0.36260977 0.14265652 0.77683336 4287000419
0.36771438 0.14259468 0.77633333 4287929498
0.3728241 0.14253581 0.77583337 4287403159
0.37774828 0.14250702 0.77550006 4287534230
0.3804062 0.14261565 0.77600002 4288387995
0.34768897 0.14791122 0.77820003 4284704349
0.35216287 0.14796278 0.77724999 4286610544
0.35707185 0.14781398 0.77633333 4287789421
0.36236557 0.14782619 0.77625 4286670432
0.36743093 0.14774561 0.77566671 4287995035
0.37305966 0.14789093 0.77625 4286943638
0.37806123 0.14774396 0.77640003 4286680209
0.38045329 0.14895311 0.77600002 4286942865
0.34337178 0.151429 0.77900004 4286153349
0.34781033 0.15211675 0.77700001 4284573279
0.35211995 0.15228389 0.77542865 4286742904
0.35763061 0.15226272 0.77750003 4288253316
0.3628473 0.15203552 0.77800006 4288451469
0.36603937 0.15301113 0.77566671 4287601048
0.37379825 0.15197606 0.77550006 4286483859
0.37762123 0.15224499 0.77674997 4286746260
0.3804782 0.152123 0.77600002 4287205782
0.347067 0.15752621 0.77766675 4284573025
0.35185561 0.1585537 0.77566671 4285556835
0.35801113 0.1577515 0.77639997 4287266686
0.36212158 0.1562039 0.77700007 4287006856
0.36733022 0.15647121 0.7753334 4286944152
0.37289423 0.15835434 0.77575004 4286286741
0.37746108 0.15744978 0.77633333 4286549653
0.38106358 0.15794122 0.77600002 4287140760
0.34777185 0.16235192 0.778 4285230695
0.35144544 0.16238394 0.77550006 4285559663
0.35738516 0.16269402 0.7768333 4287141016
0.36188117 0.16339859 0.77500004 4287601570
0.37292814 0.16257927 0.77575004 4286352794
0.37770757 0.16282479 0.77674997 4285563536
0.38081312 0.16279921 0.77649999 4285694603
0.34895006 0.16690508 0.77700001 4286284673
0.35190317 0.16794501 0.77542865 4286022535
0.35758862 0.16766995 0.77662498 4286812828
0.36172706 0.16777705 0.77575004 4287141539
0.3676025 0.16676471 0.77575004 4285892760
0.37243986 0.16706769 0.77600002 4285498775
0.3770735 0.1674864 0.77580005 4285826967
0.38029012 0.16783969 0.7753334 4286418069
0.3107729 0.17414132 0.77700001 4286409071
0.34812865 0.17260592 0.77700007 4285166451
0.35219374 0.17274594 0.77560008 4285759880
0.35707152 0.17307797 0.77600002 4286024087
0.36290836 0.17261727 0.7766 4286615969
0.36767516 0.17244709 0.776375 4285695639
0.37272635 0.17158355 0.7766667 4285630103
0.37723753 0.17296509 0.77633333 4286155415
0.38018909 0.17411137 0.77500004 4286285965
0.31098089 0.17741756 0.77750003 4289698723
0.34878924 0.17735991 0.77649999 4286351241
0.35249329 0.1771064 0.77620006 4285826188
0.35733518 0.17794739 0.77650005 4285761945
0.36233488 0.17728856 0.77575004 4286221725
0.36747193 0.17722151 0.7762 4286155676
0.37218797 0.17815822 0.77766675 4285892760
0.37696901 0.17773652 0.77716666 4286418072
0.31038946 0.18023516 0.77600002 4287987848
0.34994045 0.18217094 0.77900004 4286613901
0.35289556 0.18278587 0.77700007 4285760397
0.35760337 0.18282245 0.77700007 4285367706
0.36189979 0.18225859 0.77571434 4285696414
0.36726379 0.18255948 0.7755 4286024863
0.37266019 0.18257646 0.77650005 4286089626
0.37729326 0.1826591 0.77550006 4286352279
0.34937906 0.18715228 0.77766675 4286811792
0.35148725 0.18818183 0.77600002 4285694603
0.35741699 0.18799864 0.77650005 4285236124
0.36146918 0.18791479 0.77600002 4285433759
0.36850789 0.1877424 0.77500004 4286221730
0.3728295 0.18790755 0.77639997 4286089629
0.3780812 0.18831906 0.77700007 4285825682
0.38035309 0.18892881 0.77500004 4286613902
0.34885719 0.19287996 0.77800006 4285955972
0.3525556 0.19243336 0.77750003 4285957774
0.35799107 0.19252098 0.77766675 4285038746
0.36191747 0.192342 0.7753334 4285104798
0.36640456 0.19195209 0.77500004 4285433245
0.37141836 0.19236848 0.77649999 4286287779
0.3771297 0.19259392 0.77716666 4286747041
0.31242898 0.19701667 0.77566671 4287796893
0.34817779 0.197115 0.77800006 4285561725
0.35260019 0.19773407 0.77749997 4286023566
0.35732487 0.19742912 0.77611113 4284907160
0.36263597 0.19745429 0.77600002 4285104798
0.36756486 0.19767636 0.77562505 4285565087
0.3731342 0.19737026 0.77642858 4286155677
0.37646684 0.19752318 0.77566671 4286878369
0.31298915 0.20263866 0.77700007 4287531413
0.34869704 0.20319462 0.77825004 4285232762
0.35276264 0.20310259 0.77775007 4285957778
0.3570562 0.20314291 0.77775007 4285105053
0.3622385 0.20308898 0.77733332 4284579225
0.36735672 0.20286199 0.77540004 4286485417
0.37213874 0.20273316 0.77550006 4286878371
0.37701783 0.20309205 0.7766667 4286812317
0.34883788 0.20644546 0.77850008 4285298301
0.35236484 0.20805685 0.77642858 4285957524
0.35729179 0.20689094 0.77583337 4285236382
0.36262265 0.20692725 0.77575004 4284841883
0.36716074 0.20711176 0.77625 4285564832
0.37171289 0.20729715 0.77674997 4286550178
0.37731719 0.20747794 0.77716678 4287601576
0.31052461 0.2139748 0.77600002 4287994528
0.34974802 0.21269475 0.77800006 4286417025
0.35165718 0.21151729 0.77750003 4285957002
0.35750756 0.21263827 0.77616668 4284973210
0.36254355 0.21271516 0.77642858 4284972953
0.36730504 0.21191116 0.77566671 4285432987
0.37259898 0.21247737 0.7762 4286352541
0.37721381 0.21228847 0.77625 4287008154
0.34785676 0.2159992 0.77850008 4282337608
0.3523699 0.21666342 0.77816671 4284970622
0.35747615 0.21648276 0.77600002 4284644245
0.36261928 0.21640784 0.77550006 4284841622
0.36763299 0.21735039 0.77560002 4285104021
0.37320447 0.21807107 0.77639997 4285760404
0.37798771 0.21781892 0.77600002 4286416787
0.30805388 0.22212552 0.77500004 4284047202
0.35379091 0.22280933 0.77600002 4284708486
0.36784038 0.22278795 0.77680004 4285431953
0.37270865 0.22309136 0.77611113 4286022801
0.37814075 0.22288501 0.7766 4286680212
0.38106418 0.22198755 0.77550006 4286745745
0.30847719 0.22663915 0.77600002 4287006344
0.34369439 0.22872204 0.77850008 4284838521
0.35285085 0.22675827 0.77500004 4284707968
0.35822272 0.226827 0.77500004 4285299593
0.36145067 0.22687034 0.77500004 4286484119
0.36620224 0.22509523 0.77600002 4286418075
0.3791914 0.22529273 0.77600002 4287402648
0.38087195 0.2250382 0.77500004 4287271316
0.34408489 0.23238795 0.77766675 4282206523
0.34523946 0.23362224 0.77700001 4281548337
0.3397103 0.23734772 0.77900004 4279444498
0.34282759 0.23730865 0.77875006 4279444757
0.34612903 0.23716334 0.77600008 4282864198
0.33924177 0.24320792 0.77900004 4285938745
0.34241593 0.24230526 0.77766663 4285349175
0.34577224 0.24206711 0.77675003 4285361510
0.31504408 0.24998717 0.77600002 4286792011
0.33832851 0.24768664 0.77800006 4289485675
0.34304467 0.24727942 0.77650005 4287978344
0.33967811 0.25213128 0.77850008 4287969868
0.34253663 0.25262341 0.77657139 4287841877
0.34744313 0.253739 0.77649999 4292202965
0.35151434 0.25257438 0.77600002 4290673318
0.33950382 0.25517216 0.77800006 4287835454
0.34963375 0.25590652 0.77649999 4292855253
0.35161734 0.2577861 0.77724999 4288566903
0.32283598 0.26382735 0.77900004 4280764467
0.34391183 0.26165104 0.77800006 4285343020
0.34795263 0.26256633 0.77733332 4286146923
0.35240066 0.26255685 0.77600002 4286527555
0.35770464 0.26196665 0.77500004 4287641669
0.36236846 0.26334512 0.77566671 4284493876
0.32233799 0.26764327 0.77766663 4281552956
0.34442264 0.26627609 0.77900004 4288193175
0.34770846 0.26555064 0.77666664 4285231980
0.35236743 0.26682863 0.77640003 4286283896
0.3574582 0.26694939 0.77520001 4286153851
0.36259577 0.26780492 0.77537501 4284116830
0.36734763 0.2670818 0.77500004 4283523410
0.35393536 0.27155805 0.77825004 4279976491
0.35784504 0.27236778 0.77725005 4280108075
0.36228329 0.27289161 0.77600002 4280108843
0.36720857 0.27383655 0.77625 4280438578
0.35738659 0.2770651 0.77842861 4280504376
0.36254546 0.27801752 0.77775002 4280175922
0.36733282 0.27763313 0.77633333 4280440118
0.35826576 0.28327832 0.77766675 4282281304
0.3632502 0.28386468 0.77900004 4280505661
0.3664422 0.28191137 0.77733332 4280506427
0.33678699 0.28727013 0.778 4280375619
0.340473 0.28770062 0.77900004 4279916352
0.34658819 0.28961602 0.77800006 4288005808
0.3554498 0.28675035 0.77850008 4280703556
0.36236817 0.28529328 0.77700001 4280440894
0.37387624 -0.021789573 0.78100002 4279506183
0.32200277 0.058851834 0.78400004 4283964700
0.33785343 0.058653969 0.78133339 4283646784
0.34326768 0.05885607 0.78400004 4284765266
0.35425383 0.058565285 0.78000003 4286938233
0.3547135 0.063932337 0.78100002 4284160794
0.35704383 0.062849484 0.78066677 4284750619
0.36286825 0.064089358 0.78020006 4285145121
0.36704203 0.064925104 0.78000003 4284948255
0.37131301 0.06493251 0.78000003 4284883490
0.31735149 0.067261577 0.78300005 4284557861
0.35349098 0.067277111 0.78300005 4282196763
0.35715267 0.068227001 0.78166676 4285080097
0.36252701 0.068241343 0.78175008 4286601045
0.36736035 0.06744989 0.78066665 4287330421
0.371793 0.067133717 0.78100002 4288052603
0.31653982 0.072381556 0.78100002 4281279515
0.35669947 0.072246604 0.7816 4285080097
0.36238632 0.072027408 0.78066665 4286145375
0.36736801 0.072389178 0.78066665 4283849813
0.37132993 0.073394001 0.78000003 4283389262
0.35773808 0.078300275 0.78175002 4285211164
0.36326087 0.076646775 0.78100002 4286281328
0.36688009 0.076101646 0.78075004 4283060040
0.3148264 0.082006596 0.78200006 4283772449
0.31522855 0.084232673 0.78300005 4283771681
0.35715142 0.082670771 0.78228575 4284949272
0.36169621 0.083316855 0.78066665 4284824370
0.3574852 0.087373845 0.78233337 4285277207
0.36221436 0.087235495 0.78100002 4285681731
0.35743874 0.092328578 0.78162503 4285606680
0.3119064 0.098701902 0.78000003 4285685832
0.34735233 0.098106436 0.78350008 4284898123
0.35791531 0.097545497 0.78166676 4286003231
0.36284363 0.097704813 0.78000003 4284893506
0.3681885 0.098777756 0.78000003 4284444796
0.31270587 0.1021328 0.78200006 4286143296
0.3454428 0.10135455 0.78400004 4286804835
0.35668123 0.10198482 0.78050005 4285018391
0.36499405 0.1030011 0.78000003 4284905087
0.36867049 0.10208343 0.78100002 4284971653
0.31257239 0.10738344 0.78166676 4286079047
0.3465203 0.10667048 0.78400004 4284894006
0.35821962 0.10741869 0.78150004 4286204720
0.36074027 0.10933774 0.78000003 4286992952
0.36729625 0.10516945 0.78033334 4284971652
0.38001874 0.10940903 0.78000003 4286811530
0.31350562 0.11195207 0.78400004 4288971630
0.346313 0.11403847 0.78350008 4285883730
0.35435054 0.11355202 0.78000003 4286798402
0.35693315 0.11158472 0.78099996 4286268973
0.38003835 0.11364672 0.78000003 4285957768
0.34311473 0.11721849 0.78350008 4287132767
0.34601137 0.11664778 0.78200006 4285686608
0.35481688 0.11793554 0.78100002 4287196502
0.34281051 0.12207668 0.78400004 4287326287
0.34559461 0.122277 0.78183335 4286144330
0.35528088 0.12126948 0.78200006 4285748800
0.34336078 0.12898888 0.78400004 4287780413
0.34557116 0.1275669 0.78175002 4285745203
0.34300253 0.13203855 0.78316671 4287517756
0.34727818 0.13270569 0.78075004 4284436026
0.33910269 0.13642207 0.78400004 4286856742
0.34299207 0.13696964 0.78250003 4286924849
0.3463358 0.13698204 0.78100008 4285287737
0.34252119 0.14245126 0.78200001 4286595116
0.34590644 0.14104265 0.78000003 4284827699
0.34258622 0.14739899 0.78150004 4287267452
0.34592965 0.14739564 0.78000003 4284834393
0.34184542 0.15270905 0.78200006 4286548623
0.34595063 0.15269105 0.78000003 4283784540
0.36235523 0.15312482 0.78000003 4286271307
0.33916327 0.1566347 0.78400004 4286943640
0.34235477 0.15721275 0.78150004 4286351246
0.31354615 0.16294955 0.78400004 4287863449
0.34320733 0.16232227 0.78200006 4287007630
0.34729397 0.16445714 0.78050005 4283651920
0.31355408 0.1672024 0.7840001 4287797405
0.33921382 0.16941042 0.78400004 4287206815
0.3427676 0.16800691 0.78233337 4286942611
0.34775546 0.16785443 0.78150004 4284573543
0.31236541 0.17185789 0.78100002 4288322465
0.3392331 0.17367108 0.78400004 4286418333
0.34301355 0.17267381 0.78214294 4285694351
0.34734467 0.17171197 0.78133339 4284574832
0.33924845 0.17686737 0.78400004 4286023834
0.34223959 0.17767897 0.78162503 4285629332
0.34728608 0.17768249 0.78079998 4284509299
0.33927575 0.1821961 0.7840001 4285958299
0.34262285 0.1832159 0.78280008 4285366676
0.34715217 0.18249339 0.78140002 4284509302
0.35254171 0.18348153 0.78000003 4285694342
0.33931124 0.18859312 0.78400004 4285565090
0.34220082 0.18736604 0.78325003 4284972693
0.34701863 0.18710108 0.78200006 4284575611
0.3149628 0.19437721 0.78200006 4288191908
0.34311178 0.19259132 0.78280002 4284841108
0.34705114 0.19181451 0.78200001 4284378489
0.34305245 0.1978347 0.7816 4284775571
0.34621724 0.19830784 0.78000003 4284575869
0.3394081 0.20353326 0.78400004 4284710298
0.34337687 0.2023041 0.78325009 4284841368
0.34677869 0.2024473 0.78119999 4284444027
0.31421259 0.20660113 0.78000003 4287137169
0.31583449 0.20979293 0.78400004 4288257701
0.33943164 0.20673752 0.78400004 4284644505
0.34235165 0.20870014 0.78325003 4284775575
0.34668425 0.20818152 0.78250003 4284641156
0.34298801 0.21268706 0.78216672 4284774540
0.34785497 0.21241704 0.78100002 4282930266
0.31333739 0.21803588 0.78300005 4287205012
0.33952653 0.21849576 0.78400004 4284315276
0.34287128 0.21691409 0.78280002 4284446088
0.3459568 0.21692891 0.78066665 4282996580
0.35282251 0.21539435 0.78000003 4284049778
0.33793211 0.22339289 0.78319997 4284313731
0.34258011 0.22266953 0.78242862 4284248194
0.34515017 0.22120073 0.78200006 4284707457
0.33390138 0.22785985 0.78325009 4284772736
0.33842874 0.2280453 0.78375006 4284707459
0.34316772 0.22766234 0.78225005 4284444798
0.33490238 0.23100503 0.78300005 4284379483
0.33721772 0.23241918 0.7816667 4281418543
0.3413817 0.2324764 0.78049999 4281813559
0.31306943 0.23799682 0.78200006 4284114253
0.33410078 0.23756605 0.78350008 4279773973
0.33675534 0.23749356 0.78214294 4280628768
0.33394328 0.24276873 0.78300005 4286460725
0.33782935 0.24250653 0.78200006 4286533188
0.31487077 0.24517426 0.78100002 4287980135
0.33391938 0.24638712 0.78200006 4286917174
0.33638391 0.24753173 0.78099996 4288101963
0.3178654 0.25010109 0.78300005 4287447372
0.32046843 0.25473082 0.78400004 4286330432
0.33730355 0.25256982 0.78200001 4287507776
0.33737075 0.25771993 0.78200001 4288955994
0.34148723 0.25798595 0.78000003 4287835452
0.34719005 0.25828674 0.78066665 4287716964
0.32405293 0.26269829 0.78200006 4284839529
0.33687711 0.26158392 0.78299999 4288240232
0.34245393 0.2628524 0.78171432 4285741119
0.34608856 0.26117864 0.78300005 4286916402
0.34171686 0.26641142 0.78275001 4285692785
0.34859848 0.26916632 0.78100002 4279907108
0.34748629 0.2724348 0.78180009 4279977002
0.35135028 0.27291897 0.78133339 4279911466
0.32557845 0.27705419 0.78000003 4281292096
0.34462005 0.27767396 0.78400004 4282675540
0.34766942 0.27755514 0.78350008 4280241202
0.35230008 0.2770071 0.78166676 4279846957
0.35597199 0.27973849 0.78000003 4282412120
0.32948327 0.28282586 0.78400004 4281884750
0.34467807 0.28092 0.78400004 4280833594
0.34686014 0.28095981 0.78400004 4281294147
0.35311535 0.28212577 0.78257143 4281294662
0.35604042 0.28297877 0.78000003 4282543707
0.36366668 0.28206468 0.78000003 4280242232
0.33393845 0.28740239 0.78150004 4280570944
0.33716676 0.28727931 0.78400004 4283927156
0.34273595 0.28756383 0.78299999 4280309310
0.34830189 0.28776175 0.78324997 4280177975
0.35226774 0.28703398 0.78175008 4280374588
0.34530172 0.29031557 0.78000003 4281890142
0.37674737 -0.019823572 0.78700006 4279637769
0.32664007 0.059114359 0.78750002 4283504663
0.33204514 0.059127182 0.78766674 4282914838
0.33517891 0.058927789 0.78500003 4282656547
0.34757054 0.059045639 0.78650004 4286017386
0.32069606 0.06113166 0.78600001 4285409319
0.33859903 0.061288659 0.78800005 4284881176
0.34210283 0.06208213 0.78720009 4284816155
0.34705365 0.062874265 0.78775007 4284555038
0.33903122 0.067779832 0.78900003 4284947736
0.34202817 0.067738459 0.78850007 4285013529
0.34687299 0.067641415 0.78733343 4284358426
0.35056442 0.068595707 0.78600001 4285161045
0.33903316 0.072055526 0.78900003 4285079836
0.34214005 0.073103487 0.78875005 4285144858
0.34709719 0.073022395 0.78783339 4284424474
0.31937635 0.0762311 0.78800005 4281018141
0.33796418 0.076330803 0.78900003 4283178519
0.34237322 0.0774979 0.78780007 4285341722
0.34742662 0.077056304 0.78760004 4284555801
0.35654619 0.077026822 0.78500003 4285014815
0.33917877 0.083318681 0.78766674 4282722337
0.3425622 0.082499787 0.78662509 4285212190
0.34766361 0.082508206 0.78666681 4284359705
0.31703964 0.087918907 0.78750002 4284166693
0.33904231 0.087021485 0.78900003 4286076242
0.34253335 0.087889872 0.78716666 4286140488
0.34693325 0.087653548 0.78500003 4284099873
0.3390466 0.092366941 0.78900003 4286474335
0.34261155 0.09217602 0.78733343 4286341719
0.34749088 0.092055932 0.78625005 4285553488
0.33890831 0.097670548 0.78866673 4287069042
0.34285915 0.097579278 0.78788894 4286738789
0.34652105 0.096726716 0.78525001 4286015834
0.3386274 0.10292823 0.78800005 4286542177
0.34233439 0.10275944 0.78666669 4286935393
0.34588686 0.10361206 0.78500003 4287527014
0.33788186 0.10730113 0.78875005 4287528301
0.34233955 0.10702453 0.78666669 4286934617
0.34589607 0.10893302 0.78500003 4286737751
0.31430557 0.11436717 0.78600001 4285617475
0.33771902 0.11274027 0.7872858 4287133027
0.342489 0.11204746 0.78637505 4287198817
0.34747449 0.11146674 0.78533334 4285489484
0.31550553 0.11694138 0.78900003 4288124298
0.33842984 0.11727273 0.78750002 4287527009
0.34099877 0.11865269 0.78600001 4287330144
0.31550705 0.12335467 0.78900003 4288320910
0.33846664 0.12243367 0.78685719 4286930501
0.34186363 0.1239038 0.78550005 4286863421
0.33792752 0.12775254 0.7877143 4287192129
0.34197947 0.12767285 0.78575003 4286662445
0.33395052 0.13329703 0.78866673 4287789156
0.33802882 0.13258484 0.78650004 4287455817
0.31551474 0.13832107 0.78900003 4287068520
0.3340987 0.13691969 0.78900003 4287195737
0.33765465 0.13750789 0.78660005 4286797376
0.341685 0.13979636 0.78500003 4288773988
0.31432045 0.14418611 0.78600001 4288382839
0.31511742 0.14134929 0.78800005 4286803807
0.33461696 0.14360592 0.78850007 4286597178
0.33826733 0.14288531 0.78700006 4287189822
0.31432366 0.14738193 0.78600001 4287528559
0.33341467 0.14730784 0.78733331 4286607721
0.33792213 0.14745875 0.78616673 4288383867
0.31472981 0.15290312 0.78700006 4288649876
0.31512704 0.15096113 0.78800005 4287991688
0.33484763 0.1511894 0.78900003 4287994782
0.33822227 0.15256424 0.78683335 4287732124
0.34000692 0.15063322 0.78600001 4288257953
0.31473568 0.15717068 0.78700006 4288191898
0.31513566 0.15737045 0.78800005 4288455070
0.33809608 0.15737481 0.78775007 4287074968
0.34003621 0.15916839 0.78600001 4286943126
0.31434235 0.16123365 0.78600001 4288324000
0.33488262 0.1629667 0.78900003 4287141021
0.33789825 0.16235389 0.78700006 4287535263
0.34090921 0.16333768 0.78550005 4288060576
0.33489349 0.16617978 0.78900003 4287141282
0.33785644 0.16705778 0.7858572 4287469472
0.34177494 0.16537045 0.78500003 4287797403
0.33729434 0.17235786 0.78616673 4286155418
0.33472684 0.17785244 0.78850007 4287463570
0.33667362 0.17719063 0.78550005 4286483612
0.33495313 0.1811817 0.78900003 4286338666
0.33721206 0.18226357 0.78620005 4286877600
0.3170805 0.18714814 0.78733331 4287791498
0.33498889 0.18868801 0.78900003 4287796134
0.33722425 0.18723632 0.78583336 4286089629
0.3163605 0.19204572 0.78550005 4288323236
0.33692804 0.19235292 0.78700006 4285367709
0.34106252 0.19323544 0.78550005 4284775576
0.33460435 0.19594978 0.78800005 4285499037
0.33721161 0.19800411 0.78650004 4285235611
0.34108326 0.1964429 0.78550005 4285302177
0.33706376 0.20272382 0.78760004 4285630112
0.34111983 0.20179059 0.78550005 4284446869
0.33770323 0.20763777 0.78750002 4285038748
0.34309137 0.20595598 0.78500003 4284841626
0.31705403 0.21273661 0.78700006 4287862943
0.3338567 0.213732 0.78766674 4285629080
0.33787292 0.21246652 0.78630006 4284841367
0.33377016 0.21746916 0.78825003 4285234063
0.33735672 0.21809269 0.7865001 4284643471
0.34037426 0.21690863 0.78600001 4284644242
0.31414977 0.22072953 0.78500003 4281481021
0.3153629 0.22371851 0.78800005 4281481275
0.33297032 0.22249559 0.78780001 4284905095
0.3371782 0.222242 0.78600001 4284577161
0.31537589 0.22586444 0.78800005 4287797402
0.33246505 0.22710124 0.78625005 4285036160
0.34220055 0.22736837 0.78500003 4284445057
0.31423143 0.23356053 0.78500003 4285034347
0.31561047 0.23137748 0.78850007 4285757044
0.33281144 0.23349842 0.78720003 4280496673
0.31464699 0.23600113 0.78600001 4288324251
0.32885078 0.23916076 0.78900003 4281220376
0.33156028 0.23705928 0.78620005 4280036377
0.31727135 0.24490841 0.78700006 4285417544
0.3288708 0.24131639 0.78900003 4285815360
0.33159611 0.24187027 0.78600001 4285878340
0.31906313 0.24891075 0.78600001 4287512136
0.32026133 0.2477047 0.78900003 4287774794
0.32894513 0.24886644 0.78900003 4287376183
0.33209631 0.24855621 0.78720009 4287903556
0.32208148 0.25387433 0.78800005 4286461504
0.32856214 0.25178525 0.78800005 4286916663
0.33256212 0.25264549 0.78716677 4288832112
0.33641988 0.25339815 0.78600001 4287311168
0.32470572 0.25853825 0.78900003 4286922052
0.33271745 0.25763422 0.78675008 4289293434
0.33624643 0.25646722 0.78550005 4286070094
0.32431808 0.26036891 0.78800005 4284364857
0.32719839 0.26331365 0.78700006 4284836706
0.33224627 0.26286468 0.78685719 4286601566
0.33830422 0.26387614 0.78500003 4283378738
0.34915125 0.26187935 0.78500003 4288898927
0.35133156 0.26191375 0.78500003 4286874754
0.32875332 0.26798418 0.78800005 4280435501
0.33352804 0.26838177 0.78900003 4282934609
0.33738992 0.26804683 0.78783339 4283654485
0.34097549 0.26856619 0.78600001 4287206794
0.32840824 0.27304634 0.787 4280634422
0.33773234 0.27206707 0.78850007 4279976743
0.3433826 0.27253929 0.78740007 4279713831
0.34668019 0.2709884 0.78650004 4279646244
0.32763407 0.27667043 0.78500003 4280965443
0.33904377 0.27643523 0.78800005 4279912747
0.34250221 0.27688184 0.78620005 4280438578
0.34544265 0.27513021 0.78600001 4280504370
0.33181849 0.28284273 0.78700006 4281688911
0.33705139 0.2847181 0.78900003 4283530858
0.34220132 0.28210256 0.78750008 4280372791
0.34788021 0.2829555 0.78500003 4280307764
0.33341461 0.28558561 0.78550005 4280767810
0.33841848 0.28620529 0.78700006 4284846974
0.34192163 0.28555563 0.78500003 4280176439
0.34681773 0.2864891 0.7853334 4280177462
0.32273573 0.06366346 0.79100001 4285409572
0.32569897 0.061675791 0.79300004 4285277733
0.33321726 0.061675832 0.79300004 4285472796
0.33739594 0.062823765 0.79119998 4285078553
0.33385786 0.067461491 0.79366666 4285079064
0.33677527 0.066899687 0.79124999 4285079065
0.32375443 0.073537648 0.79350007 4281999384
0.33386257 0.071903393 0.79325002 4284686618
0.33713046 0.072542444 0.79100001 4284883226
0.3205919 0.078664221 0.79100001 4281873449
0.33408627 0.077741504 0.79250002 4280687636
0.33731583 0.078155898 0.79125005 4281146644
0.32180732 0.082189128 0.79400003 4282658853
0.33429855 0.082088456 0.79300004 4280557593
0.33765903 0.081750348 0.79180002 4280425749
0.33472234 0.087569103 0.79400003 4283186745
0.33732095 0.087593742 0.79142857 4284303942
0.31844813 0.092593417 0.79100001 4286079056
0.33372578 0.093227923 0.79333335 4286738537
0.33700052 0.092686735 0.79174995 4286540644
0.31905162 0.097063668 0.79250002 4286670419
0.33451676 0.097190291 0.79350007 4287070331
0.33672962 0.097479478 0.7906 4287135609
0.31965533 0.10047331 0.79400003 4286405188
0.33344337 0.10256373 0.79350001 4286673250
0.33647501 0.10267188 0.79100001 4287200881
0.3347356 0.10800946 0.79400003 4285686867
0.33540809 0.10753603 0.79050004 4287002727
0.33410722 0.11210045 0.79250002 4286871140
0.33541256 0.11181979 0.79050004 4286871140
0.31630573 0.11938094 0.79100001 4288321164
0.3329033 0.11789386 0.79328579 4287461213
0.33606297 0.11775048 0.79075003 4287197528
0.31630623 0.12152413 0.79100001 4288320910
0.33260447 0.12270167 0.79300004 4286933844
0.33563831 0.12261213 0.79100001 4287787095
0.3159081 0.12672192 0.79000002 4288122755
0.33168772 0.12702894 0.7918334 4287988592
0.33522224 0.12781172 0.79000002 4287722589
0.31631052 0.13224088 0.79100007 4287199336
0.33170599 0.13209224 0.79185718 4287922286
0.31591317 0.13635541 0.79000002 4287923574
0.32962424 0.13886188 0.79200006 4288644467
0.33146104 0.13766031 0.79124999 4288118125
0.33199301 0.14217706 0.79250002 4288118383
0.33653468 0.14075696 0.79050004 4288048475
0.33240509 0.14734557 0.79140007 4287659894
0.33215207 0.1525753 0.79180002 4287271319
0.33527783 0.15352461 0.79000002 4287535004
0.33321136 0.15727668 0.79275006 4286615191
0.33623725 0.15785451 0.79020005 4287075482
0.33363143 0.16231737 0.79320002 4286812827
0.31970873 0.1671856 0.79400003 4287665563
0.33422005 0.16798475 0.79250002 4285891734
0.33532557 0.16853546 0.79000002 4287865266
0.31972289 0.17364769 0.79400003 4287731356
0.33254641 0.17252009 0.79260004 4285431184
0.33534181 0.17282641 0.79000002 4284314757
0.31946528 0.17780656 0.79333335 4287791497
0.33255821 0.17758295 0.79214287 4286274668
0.31833911 0.18253557 0.79050004 4288249735
0.33182949 0.1825968 0.79257149 4286075487
0.33538741 0.18355827 0.79000002 4286865010
0.32192945 0.18874088 0.79400003 4289761180
0.33300281 0.18723708 0.79200006 4286276978
0.33539754 0.18570557 0.79000002 4289369513
0.33250403 0.19258174 0.79185718 4286212220
0.32075438 0.19877234 0.79100001 4288191911
0.33165887 0.19753446 0.792 4286484128
0.32076851 0.20199737 0.79100001 4287928482
0.33234546 0.20247427 0.79180002 4286944421
0.33549178 0.20289651 0.79000002 4287668661
0.32139686 0.20669046 0.79250002 4287597206
0.33233383 0.20708206 0.79200011 4286878371
0.33580258 0.20737411 0.79066676 4286155683
0.32202676 0.21140002 0.79400003 4286415244
0.33278355 0.21273179 0.792 4286418078
0.31908572 0.21732211 0.79200006 4287731357
0.3315095 0.21784808 0.79233336 4286088597
0.31971464 0.22205281 0.79350007 4285823360
0.32995984 0.22278193 0.79200006 4285759115
0.33191177 0.22157802 0.79149997 4285430668
0.31618977 0.22858952 0.79000002 4287007372
0.32999215 0.22710054 0.79200006 4285495943
0.33118603 0.22772163 0.79225004 4285496451
0.31999287 0.23408891 0.79400003 4288652448
0.32869849 0.23415454 0.79400003 4280232991
0.33091232 0.23236358 0.79149997 4282865222
0.31960535 0.23595621 0.79300004 4288651165
0.32002431 0.23841912 0.79400003 4283061068
0.32798761 0.23794675 0.79219997 4280957222
0.33006278 0.23574449 0.79200006 4280233503
0.31885725 0.24291265 0.79100001 4284834637
0.32267472 0.24320689 0.79400003 4284038964
0.3271561 0.2428772 0.7918334 4286461751
0.32332444 0.24752927 0.79300004 4287182654
0.32721609 0.24784812 0.79275006 4287442231
0.33083278 0.24626309 0.79100001 4287376182
0.32327574 0.25159448 0.79100001 4287247425
0.32734188 0.25277105 0.79116672 4286852409
0.32775623 0.25746661 0.79116672 4286591035
0.32905385 0.26201347 0.79066676 4285609529
0.33176851 0.26869276 0.79000002 4279974437
0.33334017 0.27339485 0.79100001 4280109355
0.33663803 0.27452862 0.79100001 4279846438
0.34058824 0.27424753 0.79000002 4279845671
0.3337346 0.27796146 0.79266667 4281030718
0.33690608 0.27851465 0.79149997 4280307251
0.33382973 0.28174227 0.79100007 4281293123
0.33753195 0.28190142 0.79025 4283070305
0.3407298 0.28295493 0.79000002 4280043827
0.34076717 0.28513455 0.79000002 4281820753
0.3754687 -0.026586207 0.79800004 4279900425
0.37622911 -0.024332667 0.79500002 4279768841
0.37405217 -0.015712528 0.79500002 4282862393
0.32864285 0.06340123 0.79666668 4285079836
0.33224061 0.063401222 0.79666668 4285276701
0.33513692 0.063985392 0.79500002 4285276187
0.3243674 0.066139162 0.79500002 4285146914
0.32518315 0.068464741 0.79700005 4285278500
0.33130771 0.067186102 0.79720002 4285079578
0.32477486 0.07053531 0.79600006 4284557089
0.32775164 0.073953837 0.79800004 4282983196
0.33194903 0.072766982 0.79683334 4283047446
0.32723832 0.078475423 0.7978 4285755496
0.33200747 0.077512085 0.79680002 4283384378
0.32775092 0.082602121 0.79800004 4285954159
0.33221978 0.082371145 0.79575002 4282926142
0.32261747 0.086709097 0.79600006 4283773735
0.32775113 0.086926974 0.79800004 4284899157
0.33287469 0.087443784 0.79680008 4284238405
0.33514386 0.087679371 0.79500002 4286277988
0.3235628 0.092371196 0.79833335 4285487177
0.32903907 0.090226583 0.79850006 4284831051
0.33137047 0.092596836 0.79716665 4285686103
0.32383296 0.098941378 0.79900002 4286867537
0.33192897 0.097783774 0.79659998 4287331698
0.32005793 0.10275368 0.79500002 4286601277
0.32971215 0.10199749 0.79750001 4286404931
0.33097491 0.10279871 0.79533339 4286210382
0.32059491 0.10724004 0.79633337 4286406726
0.32950684 0.10517358 0.79700005 4286012226
0.33194703 0.10850551 0.79766661 4287266155
0.32086396 0.11272903 0.79700005 4287460188
0.32933959 0.11328149 0.79833341 4288057728
0.33202583 0.11248692 0.79525 4287596663
0.32126746 0.11719607 0.79800004 4287066209
0.32897756 0.11781539 0.79780006 4286671704
0.33084571 0.11676008 0.79500002 4287461987
0.32127008 0.12476257 0.79800004 4288057481
0.32764456 0.12278503 0.79683334 4288055675
0.33085293 0.12430158 0.79500002 4287790955
0.32147291 0.12808567 0.79850006 4288451206
0.32854229 0.12789114 0.79725003 4288253053
0.32147539 0.13241339 0.79850006 4288120694
0.32736033 0.13217083 0.79699999 4287462763
0.3308633 0.13292171 0.79500002 4288515193
0.32127801 0.13773602 0.79800004 4288514682
0.32838166 0.13754392 0.79683334 4287395426
0.32186311 0.14292227 0.79675001 4288316530
0.32757843 0.14306341 0.79750007 4288382581
0.32147264 0.14686604 0.79666668 4287987824
0.32772276 0.14744912 0.79783344 4288054647
0.33130223 0.14711796 0.79600006 4288383870
0.32102567 0.15275195 0.79733342 4288254086
0.32790539 0.15224415 0.79649997 4287926157
0.33089697 0.15232369 0.79500002 4287730322
0.32110059 0.15818901 0.79750001 4288257693
0.32868996 0.15712158 0.79750001 4287665818
0.33153349 0.15801342 0.79650009 4286746004
0.32130915 0.16261554 0.79800004 4288192415
0.32899335 0.16213675 0.79733342 4286811798
0.33154434 0.16233557 0.79650009 4286812572
0.32137203 0.16767758 0.79633337 4287863198
0.32803676 0.16706541 0.7985 4286219666
0.33208841 0.16769512 0.79628575 4285430925
0.32264236 0.17156617 0.79766673 4287534235
0.32813695 0.17161667 0.79783338 4287140511
0.330948 0.17173861 0.79500002 4285233546
0.32391989 0.17799903 0.79900002 4286476665
0.32895276 0.17887563 0.79800004 4288121490
0.33049855 0.17638397 0.79650003 4288386979
0.32325992 0.18303664 0.79733342 4285549397
0.32855153 0.18189761 0.79700005 4287787131
0.32232758 0.1868197 0.79500002 4287260532
0.32775804 0.18746127 0.79766667 4287587955
0.33100766 0.18793204 0.79500002 4288189856
0.32275206 0.19246066 0.796 4288323237
0.32825193 0.19229922 0.79750001 4288253336
0.3310217 0.19117261 0.79500002 4290289067
0.32276863 0.19678292 0.796 4288126115
0.32970184 0.19705956 0.79700005 4286285975
0.32642636 0.20223317 0.79825008 4287797411
0.33044904 0.20175748 0.79699999 4287075492
0.32769135 0.20782499 0.79816669 4287534242
0.33036566 0.20611525 0.79850006 4287404199
0.32244951 0.21491066 0.79500002 4286941844
0.32765585 0.21232311 0.79820001 4286417045
0.33144048 0.21191597 0.79575002 4287074977
0.32286718 0.2173472 0.79600006 4285823363
0.32768589 0.21753566 0.79820001 4286745750
0.33079374 0.21651295 0.79675007 4286811545
0.32356864 0.22214437 0.79766673 4286218633
0.32779914 0.22253457 0.79800004 4286416527
0.32224387 0.22737995 0.79700005 4282797392
0.32783172 0.22751062 0.79733342 4286350731
0.32269186 0.23307005 0.79640001 4283060813
0.32749531 0.23205958 0.79642862 4282929988
0.32378891 0.23773515 0.79525006 4280694570
0.32694888 0.23660117 0.79500002 4280234273
0.3239162 0.2410655 0.79550004 4283588162
0.32877883 0.067681491 0.80050004 4285145886
0.32857323 0.070889533 0.80000001 4285014814
0.3307403 0.073056839 0.80000001 4283703066
0.33074051 0.07739161 0.80000001 4283319871
0.32743675 0.09304408 0.80040008 4284699716
0.32423821 0.096897833 0.80000001 4286211154
0.32810456 0.098165601 0.80150008 4287263584
0.33074385 0.096898869 0.80000001 4287134058
0.32423848 0.10231634 0.80000001 4285745456
0.32790077 0.10244481 0.80100006 4286272570
0.32464454 0.10786965 0.80100006 4285684288
0.32757625 0.10667539 0.80179995 4287130449
0.32464612 0.11438045 0.80100006 4287592032
0.32728311 0.11174975 0.80214292 4287593831
0.32464725 0.117636 0.80100006 4287065436
0.32681993 0.11763693 0.80100006 4286012747
0.32293251 0.12223651 0.80033332 4288123529
0.32573372 0.12089218 0.801 4287925887
0.32465208 0.12740332 0.80100006 4288254083
0.32607776 0.12732488 0.80049998 4288122499
0.32445306 0.13274656 0.80050004 4288647294
0.32465938 0.137172 0.80100006 4288843389
0.32663053 0.13708916 0.80050004 4288580214
0.32425711 0.14025328 0.80000001 4289040769
0.32683811 0.14043094 0.80100006 4288184944
0.32426718 0.14892785 0.80000001 4288711804
0.32447442 0.15227714 0.80050004 4288384900
0.32644472 0.15110002 0.80000001 4288318080
0.3246893 0.15997362 0.80100006 4287928988
0.32636377 0.15773822 0.80066675 4287994008
0.32469749 0.16431853 0.80100006 4287402645
0.32687354 0.16323611 0.80100006 4286942612
0.32429653 0.16628335 0.80000001 4288126371
