# .PCD v0.7 - Point Cloud Data file format
VERSION 0.7
FIELDS x y z rgba
SIZE 4 4 4 4
TYPE F F F U
COUNT 1 1 1 1
WIDTH 1091
HEIGHT 1
VIEWPOINT 0 0 0 1 0 0 0
POINTS 1091
DATA ascii
0.30390993 0.11676149 0.76000005 4288385693
0.30601054 0.1559038 0.76000005 4286154127
0.30742991 0.1617997 0.76350003 4287008406
0.30813032 0.17653133 0.76000005 4287270542
0.38037154 0.18792248 0.76200002 4290295731
0.31111455 0.19978163 0.76200002 4286083442
0.38067806 0.208808 0.76200002 4289968562
0.31137502 0.23716493 0.76200002 4287250499
0.38337442 0.23822278 0.76200002 4289969068
0.3809104 0.24627949 0.76100004 4291608244
0.32179561 0.26617926 0.76100004 4280963381
0.3718051 0.27418539 0.76300001 4284054884
0.36927527 0.27801162 0.76200002 4282282577
0.33494765 0.055356834 0.76500005 4289046700
0.34716052 0.055653319 0.76900005 4288191391
0.3513546 0.057741467 0.76900005 4286545793
0.3582347 0.057675079 0.76800001 4285624690
0.36625749 0.057463963 0.76500005 4285488222
0.37450606 0.059861865 0.76900005 4285544503
0.31046224 0.06165174 0.76600003 4286655279
0.37466463 0.06163016 0.76500005 4288911507
0.37662846 0.064038612 0.76900005 4287587424
0.30838534 0.078253552 0.76600003 4286344823
0.37754959 0.077357382 0.7665 4286873207
0.37945369 0.088749006 0.76600003 4288320654
0.37897065 0.091749154 0.76500005 4286084978
0.37924474 0.098046936 0.76550007 4282402627
0.38099286 0.1016279 0.76900005 4282796872
0.38315323 0.10895163 0.76900005 4289834920
0.30591062 0.12167529 0.76500005 4285753455
0.3832252 0.12149577 0.76900005 4287335554
0.30963066 0.15566449 0.76900005 4286416784
0.38378498 0.18333791 0.76900005 4288451990
0.31350636 0.18882725 0.76800001 4286152828
0.38307607 0.18612695 0.76750004 4289439654
0.31393251 0.193253 0.76900005 4286481793
0.3131353 0.19692074 0.76700002 4288586656
0.3123503 0.20264919 0.76500005 4286084210
0.3135865 0.20553346 0.76800001 4287137926
0.38271081 0.21200746 0.76600003 4289837490
0.384505 0.22017913 0.76500005 4290035379
0.3855691 0.22392157 0.76700002 4287075717
0.38590163 0.22829491 0.76750004 4286088823
0.31205541 0.23092824 0.76900005 4283981388
0.38573453 0.2323759 0.76700002 4286088054
0.3848384 0.23704775 0.76500005 4282734407
0.38579983 0.23555008 0.76700002 4285563506
0.3842957 0.24323562 0.76800001 4286733906
0.31732583 0.24892704 0.76600003 4288895322
0.38436607 0.24642029 0.76800001 4286145626
0.38229448 0.25062165 0.76800001 4287124302
0.38076961 0.25728679 0.76900005 4286344544
0.37511161 0.26255199 0.76600003 4282341181
0.37586832 0.26726562 0.76733333 4283197258
0.37261146 0.27842525 0.76900005 4280506166
0.36626583 0.28467932 0.76900005 4281033542
0.37055123 0.28265014 0.76900005 4281032256
0.31666341 0.057875976 0.77100003 4286344815
0.33967045 0.055792131 0.77100003 4289177772
0.343097 0.056010485 0.77400005 4289177772
0.3473098 0.056013461 0.77400005 4288257954
0.35249338 0.057929266 0.77150005 4285164653
0.35601386 0.05782127 0.77000004 4284900452
0.3684493 0.060235277 0.77400005 4285868077
0.37274167 0.060690846 0.773 4285540395
0.3764585 0.062270034 0.77300006 4285871413
0.37859511 0.067518845 0.773 4286005824
0.37877211 0.072791398 0.77333337 4285290580
0.37911353 0.078105867 0.77400005 4284437580
0.31160566 0.081167653 0.77400005 4285290086
0.37953326 0.081942327 0.77050006 4284896845
0.38029027 0.087340377 0.77200001 4284567879
0.38055617 0.092641026 0.77250004 4282136883
0.38106564 0.096961796 0.77350008 4281941304
0.382489 0.10412167 0.77200001 4282466878
0.38392335 0.11335346 0.77050006 4288054654
0.38394737 0.11754163 0.77050006 4286804843
0.38374335 0.12479518 0.77000004 4287402373
0.37932304 0.12645698 0.77400005 4283585330
0.38426247 0.12810341 0.77100003 4286150758
0.38404208 0.13221408 0.77050006 4287726450
0.38432956 0.13754565 0.77100009 4287989885
0.36340925 0.14109677 0.77400005 4285235611
0.38486859 0.14297912 0.77200001 4287662723
0.31163105 0.14828175 0.77400005 4285556595
0.38490295 0.1471847 0.77200001 4286078037
0.31123772 0.15437798 0.77300006 4286022541
0.38445902 0.15329695 0.77100003 4287721833
0.3854284 0.15053453 0.77300006 4287719777
0.38399893 0.15729648 0.77000004 4287991437
0.38402903 0.16044626 0.77000004 4287600027
0.38554597 0.16317996 0.77300006 4287469725
0.38435292 0.16790792 0.77050006 4288060576
0.38506836 0.16507514 0.77200001 4287403932
0.3732582 0.17382476 0.77400005 4285892756
0.38463607 0.17117472 0.77100003 4288060575
0.38515818 0.17350487 0.77200001 4287929242
0.3129859 0.17617357 0.77200007 4287205007
0.36152571 0.1779428 0.77400005 4285433753
0.38553897 0.17787534 0.77266669 4288060571
0.36047506 0.18004332 0.77400005 4284710288
0.38525629 0.18194243 0.77200001 4286282105
0.31513071 0.18771312 0.77200001 4286481794
0.3841747 0.18873699 0.77400005 4286543222
0.31473982 0.19166005 0.77100003 4286613379
0.383733 0.19272308 0.77300006 4285886060
0.31435022 0.19559745 0.77000004 4286284414
0.38405257 0.19814229 0.77350008 4287665551
0.31477854 0.20004429 0.77100003 4286873726
0.38411254 0.20238036 0.77350008 4287929750
0.38440743 0.20569281 0.77400005 4286942598
0.38474464 0.2152297 0.77000004 4289771954
0.38627985 0.21819241 0.77300006 4286943369
0.38687345 0.22379565 0.77400005 4283325264
0.36602879 0.22806479 0.77399999 4285495667
0.38479713 0.22908182 0.77400005 4280826408
0.38695189 0.22805619 0.77400005 4282010681
0.35892364 0.23291641 0.77400005 4284047705
0.36297905 0.23176655 0.77350008 4283324493
0.36632898 0.23189075 0.77375007 4282864711
0.37834236 0.23216134 0.77400005 4281878582
0.38323733 0.23278204 0.77400005 4283194700
0.38653344 0.23202017 0.77300006 4285299820
0.35897058 0.23610316 0.77400005 4283850326
0.36257014 0.23619065 0.77340001 4283653203
0.36790594 0.23796536 0.77383333 4282995783
0.37811384 0.23728539 0.77333337 4279839256
0.38181213 0.23733929 0.77328581 4281812787
0.38598102 0.2377937 0.77275002 4282404413
0.35358334 0.24173935 0.773 4283587155
0.35787666 0.24238737 0.77375007 4284442464
0.36205128 0.24131355 0.77350008 4282534210
0.36799812 0.2419447 0.77350008 4283910719
0.37316275 0.24287248 0.77333337 4285480757
0.37749946 0.24295394 0.77333337 4285282354
0.38239828 0.24259436 0.77300006 4285349427
0.38522774 0.24067821 0.77000004 4283449650
0.32061702 0.2494078 0.77400005 4288037703
0.36127752 0.24570976 0.77400005 4286745219
0.36970598 0.24676791 0.77350008 4288963176
0.372594 0.24658899 0.77275002 4286261550
0.37691212 0.24741676 0.77171427 4286919220
0.38290718 0.24679308 0.77275002 4286922043
0.38518542 0.24829797 0.77400005 4287449670
0.37308589 0.25232297 0.77400005 4287905862
0.37718469 0.25315821 0.77300006 4287706424
0.38151383 0.25218096 0.773 4287446847
0.38121495 0.25548851 0.77000004 4287855474
0.37750959 0.26212844 0.77100003 4285822050
0.38061893 0.26071656 0.77300006 4284367669
0.32726172 0.26859742 0.77400005 4281291062
0.37586445 0.2740202 0.77150005 4281819458
0.32950097 0.27502063 0.77400005 4281423164
0.33000278 0.27787957 0.77000004 4281754184
0.37497866 0.27808276 0.77400005 4280768822
0.33522475 0.28294027 0.77200001 4280833341
0.37196139 -0.021677975 0.77700001 4279506183
0.39015478 -0.011125062 0.77500004 4281612840
0.32249227 0.058363698 0.77750003 4286477689
0.32712477 0.058438927 0.77850008 4287861141
0.33204708 0.05837734 0.77766675 4287795860
0.33703634 0.058329076 0.77700001 4287401359
0.34107849 0.058480714 0.77900004 4286809479
0.34654087 0.056228995 0.77700001 4288060575
0.3507739 0.058338065 0.77700001 4285296240
0.31410953 0.064475685 0.77500004 4286591541
0.31661597 0.060353905 0.77600002 4285211174
0.3533476 0.060523737 0.77800006 4286393907
0.35751662 0.061570365 0.7778334 4286130733
0.36309305 0.062299661 0.77742863 4286262062
0.36731991 0.062911056 0.77683336 4286260778
0.37234217 0.063830242 0.77680004 4285866788
0.37758636 0.064739302 0.77750003 4286395444
0.31532499 0.066832967 0.77800006 4286722360
0.36314717 0.06796129 0.77850008 4286726471
0.36724219 0.068031177 0.77680004 4286128165
0.3719475 0.067611545 0.77833337 4285931811
0.37939256 0.06803643 0.77900004 4286328881
0.36315429 0.072182879 0.77850002 4285548621
0.36724997 0.071824431 0.77680004 4285998119
0.37144196 0.072153024 0.77800006 4285603360
0.37891591 0.072169147 0.778 4285417030
0.35695636 0.078035064 0.77733332 4284638565
0.36229989 0.077424914 0.77816671 4284633424
0.36715111 0.078188144 0.77866673 4284820775
0.37209636 0.078695498 0.778 4285018403
0.37698489 0.077357642 0.77714294 4283448885
0.31361818 0.083802365 0.77900004 4285028712
0.35795775 0.08244355 0.77780002 4284901737
0.36305904 0.08271265 0.77825004 4284896337
0.36755621 0.08277458 0.77875006 4284886309
0.37205446 0.082601964 0.77700001 4284231970
0.37773809 0.082344964 0.77640003 4284691751
0.38059926 0.083680488 0.77700001 4283510560
0.31341636 0.08691144 0.77850008 4284701806
0.35707685 0.086578585 0.77833343 4284703589
0.36128449 0.085955784 0.77900004 4284373337
0.36857787 0.088445172 0.77750003 4284687898
0.37295267 0.087635957 0.7775715 4283376918
0.37862816 0.087600939 0.77820003 4284953382
0.38109967 0.086955793 0.77800006 4283380002
0.3136172 0.090133518 0.77900004 4285098879
0.35278034 0.090164028 0.77900004 4285822844
0.3566573 0.092185892 0.77816671 4286743689
0.36289388 0.090713188 0.77900004 4285557095
0.36773744 0.0915296 0.77833343 4286329645
0.37216309 0.093163215 0.77716666 4286527533
0.37803948 0.092326999 0.77662498 4284560683
0.3572515 0.097172774 0.77866673 4279769114
0.36348966 0.097850926 0.77833337 4281083682
0.3670091 0.098461166 0.77750003 4281018916
0.37265709 0.097506903 0.77816671 4283839277
0.37759539 0.097466409 0.77600002 4282068520
0.38015452 0.096212402 0.77600002 4281150502
0.35759586 0.10284996 0.77900004 4285162815
0.36201835 0.10294665 0.77762496 4282531121
0.36752737 0.10286369 0.77687496 4281413936
0.37327528 0.10248464 0.77814293 4281479217
0.37729773 0.10261017 0.7766667 4280558113
0.38149515 0.10260586 0.77650005 4282269758
0.35839161 0.107646 0.77800006 4286002469
0.36236906 0.10822137 0.77800006 4284757036
0.36747548 0.10777536 0.77616668 4281871914
0.37344649 0.10797957 0.77750003 4283250484
0.37736076 0.10789405 0.77674997 4284887087
0.38242546 0.10783702 0.77616668 4283843647
0.35815495 0.11236184 0.77900004 4284825640
0.36211106 0.11227918 0.77833337 4285607712
0.3674902 0.11198991 0.77616668 4284822058
0.37226307 0.11184205 0.77500004 4284625966
0.37750214 0.11215004 0.77700001 4286002734
0.38310182 0.11224777 0.77750009 4286399803
0.35832134 0.11779936 0.778 4282867565
0.36280847 0.11743949 0.77749997 4284701002
0.36707565 0.11745534 0.77749997 4284628012
0.37268412 0.11748031 0.77750003 4285938993
0.37704125 0.11727508 0.77600002 4286134830
0.38277546 0.11741895 0.7767778 4287255882
0.35795918 0.12285394 0.77850008 4282145153
0.3631781 0.12283306 0.77825004 4283968811
0.36750191 0.12286769 0.77700001 4284952863
0.37255955 0.12226819 0.77775007 4285674530
0.37762406 0.12290084 0.77825004 4284951577
0.38250339 0.12260308 0.77616668 4284567099
0.35844654 0.12688687 0.7786001 4281749361
0.36307773 0.12701987 0.778 4284629314
0.36696652 0.12771408 0.77566671 4286263844
0.37216088 0.12793241 0.77685708 4286066974
0.37677342 0.12756059 0.77628577 4284567347
0.3831602 0.12644993 0.77600002 4284310339
0.38559079 0.12819436 0.77800006 4284572750
0.35396135 0.13349071 0.77900004 4283658385
0.35751984 0.13385713 0.77900004 4284052367
0.36260796 0.13300057 0.77857149 4282007872
0.36766931 0.13275971 0.77700001 4284824110
0.37260687 0.13298534 0.77550006 4287054643
0.37773535 0.13331045 0.77725005 4286200870
0.38280281 0.1318384 0.77775002 4286273341
0.38545355 0.13236971 0.77766675 4285619530
0.35375065 0.13763329 0.77850008 4283329421
0.35725132 0.13735513 0.77683336 4284906903
0.36219445 0.13723221 0.77600002 4287010207
0.36768556 0.13731863 0.77633333 4285430146
0.37287152 0.13728996 0.77600002 4285617750
0.37800464 0.13762528 0.77775007 4286928456
0.38242522 0.13769849 0.77800006 4286991932
0.38515973 0.13754296 0.77700001 4287194198
0.31363422 0.14079255 0.77900004 4287662224
0.35778427 0.14211336 0.77728587 4283658129
0.36226463 0.14238523 0.7753334 4284972694
0.36765209 0.14257117 0.7762 4283327872
0.37294498 0.14236511 0.7768333 4282663762
0.37726983 0.14262299 0.77616668 4284560933
0.38213608 0.14286713 0.77733332 4286005554
0.38543874 0.14186494 0.77750003 4285419591
0.3132388 0.14693883 0.77800006 4284965224
0.35819879 0.14680162 0.77880007 4281752194
0.36207476 0.14817747 0.77700001 4283132812
0.36675707 0.14789821 0.77649999 4284249231
0.37207353 0.1472321 0.77700001 4284304726
0.37722558 0.14787459 0.77600002 4286594353
0.38238108 0.14823945 0.77775007 4286070322
0.38556263 0.14718866 0.77766675 4285022777
0.31244075 0.15182087 0.77600002 4286613396
0.35404944 0.15359232 0.77900004 4281555074
0.35828841 0.15257382 0.77800006 4282146694
0.36274049 0.15219481 0.77700001 4284710552
0.36761519 0.15203129 0.77600002 4286220694
0.37332863 0.1522145 0.77674997 4285757311
0.37822932 0.15249033 0.77800006 4285084725
0.38253653 0.15252367 0.77800006 4286268215
0.38527566 0.15235394 0.77700001 4286532157
0.35192344 0.15569879 0.77900004 4282080903
0.35833803 0.15573247 0.77900004 4282080903
0.36222172 0.15769567 0.7781111 4284512917
0.36796555 0.1574454 0.7766667 4286614678
0.37292686 0.15731525 0.77583337 4286549398
0.37754235 0.15748222 0.77650005 4285760400
0.3826502 0.15752445 0.77649999 4285753970
0.38532203 0.15764771 0.77700001 4285416253
0.35887551 0.16289197 0.77775002 4282343556
0.36269078 0.16271095 0.77674997 4284644502
0.36732757 0.16289826 0.77750003 4286550176
0.37221411 0.16272776 0.77649999 4286220951
0.37734258 0.16266792 0.77600002 4285301137
0.38258383 0.16262564 0.7766 4285629071
0.3853814 0.16400357 0.77700001 4285891468
0.35413232 0.16841897 0.77900004 4282739084
0.35722283 0.16732603 0.77875006 4282344070
0.36246571 0.16730802 0.77850008 4283395210
0.36721027 0.1681162 0.77716666 4284972690
0.3724083 0.16703065 0.77683336 4285432723
0.37815893 0.16775011 0.77833343 4284775308
0.38640475 0.1676133 0.77900004 4286483089
0.31459552 0.1728738 0.77600002 4286547589
0.35284814 0.17042226 0.77850008 4283001995
0.35766172 0.17270079 0.77787507 4283395981
0.36294812 0.17222886 0.77814293 4283855758
0.36827776 0.17280483 0.77642864 4285104531
0.37319762 0.17185588 0.7766 4285761430
0.37742898 0.17218542 0.77600002 4285760658
0.38273075 0.17373472 0.77800006 4286614676
0.38595217 0.17164427 0.77800006 4287139733
0.35205999 0.17900443 0.77900004 4284249744
0.35811517 0.17801902 0.77820003 4283790221
0.3624413 0.1762881 0.77600002 4284512911
0.36685619 0.17743778 0.77625 4285630358
0.37266195 0.17769592 0.77716666 4285892500
0.37796748 0.17771055 0.77700007 4286615189
0.38265264 0.17792533 0.77775007 4286876816
0.38617483 0.17702961 0.77833337 4287797658
0.35423318 0.18326186 0.77900004 4284776088
0.35810062 0.18232195 0.77742857 4284052877
0.3626121 0.182693 0.77625 4284841616
0.36736593 0.18190615 0.77725005 4285498772
0.37190667 0.18206175 0.77775002 4285760913
0.37657994 0.18228012 0.77850008 4286418067
0.38206723 0.18237649 0.77866673 4287335570
0.38542071 0.18301611 0.77666664 4287005574
0.31797987 0.18729885 0.77900004 4286876552
0.3540467 0.18844721 0.77850008 4284578960
0.35702619 0.18729086 0.77800006 4284644752
0.36263904 0.18791118 0.77785718 4284972944
0.36729684 0.18714516 0.77699995 4285299336
0.37144133 0.18710721 0.77666664 4285557367
0.37692407 0.18721008 0.77814293 4286212723
0.38282305 0.18778279 0.77787507 4286277743
0.35429987 0.19175218 0.77900004 4284907667
0.3581441 0.19260287 0.77800006 4285235857
0.36268371 0.19233491 0.77760005 4286287000
0.36711371 0.19232294 0.77649999 4287073174
0.37165678 0.19249234 0.77700001 4285682783
0.3766965 0.19291095 0.77850008 4286009177
0.38269335 0.19326811 0.77880007 4286210663
0.35867479 0.19743513 0.77749997 4285564564
0.36341485 0.19787659 0.77766675 4286615192
0.3673273 0.19771077 0.7768333 4285226602
0.37228325 0.19741748 0.77649999 4287263098
0.37734348 0.19692691 0.77750003 4283051059
0.38456637 0.19632271 0.77900004 4285357920
0.35762042 0.20215116 0.77800006 4285761685
0.36279601 0.2033767 0.77760005 4286352789
0.36817515 0.20345397 0.77850008 4286746261
0.37248331 0.20243904 0.77850008 4286941583
0.37732473 0.20260596 0.77787501 4286811024
0.382534 0.20209697 0.77785712 4287139728
0.31645653 0.20951585 0.77500004 4287862418
0.35873926 0.20667173 0.77900004 4287141019
0.3639192 0.2087253 0.77850008 4287141017
0.36800164 0.20864174 0.77800006 4286680723
0.3717199 0.2089496 0.77900004 4286615444
0.37787053 0.20672379 0.77833337 4286418065
0.38406268 0.20734446 0.77766675 4286745737
0.3640399 0.21247891 0.77820003 4286549394
0.36734554 0.21249056 0.77649999 4286417807
0.37206188 0.21277298 0.77733332 4286352014
0.37579036 0.21308905 0.77833337 4285760390
0.3854821 0.21154556 0.77600002 4284705636
0.31519818 0.21850541 0.77700001 4286811011
0.35453451 0.21620584 0.77900004 4285629063
0.35776713 0.21624181 0.77900004 4285629063
0.36230448 0.21762429 0.77866673 4285760391
0.36788726 0.21808481 0.77750003 4286154891
0.37269333 0.21842495 0.77850002 4286286476
0.37728944 0.21787855 0.77860004 4285563010
0.38050461 0.21653923 0.77900004 4286154377
0.3862955 0.21622366 0.77750003 4286284669
0.31481287 0.22139487 0.77600002 4284376924
0.36246562 0.22222687 0.77733332 4286022530
0.36759129 0.22213225 0.77675003 4286088322
0.37215629 0.22233672 0.77725005 4285891458
0.37697747 0.22268751 0.77825004 4285496701
0.38498336 0.22409491 0.77900004 4285759612
0.38749158 0.22265217 0.77750003 4286417282
0.31608132 0.22968182 0.77900004 4286548344
0.35337943 0.22883464 0.77850008 4285034601
0.3574518 0.2276758 0.77800006 4285626739
0.36222661 0.22735871 0.77666664 4285692533
0.36749449 0.22572793 0.77566671 4286219392
0.3717992 0.2274013 0.77633333 4285759611
0.37727579 0.22794521 0.77700001 4285430903
0.38257772 0.22749993 0.77714288 4284839019
0.38573301 0.22646901 0.77600002 4281549621
0.31447399 0.23061594 0.77500004 4282207032
0.35282433 0.23116903 0.77800006 4283060811
0.3575224 0.23238513 0.7766 4282468674
0.36199313 0.2324833 0.77600002 4283389775
0.37264803 0.23255104 0.77566671 4282667586
0.37690401 0.23257303 0.77550006 4281944375
0.38207102 0.23145251 0.77500004 4281352753
0.34832269 0.23745093 0.77900004 4283916120
0.35235217 0.23792727 0.77775007 4284508256
0.35694733 0.23791024 0.77557147 4284837221
0.3627196 0.23965096 0.77500004 4286087032
0.36589104 0.23544225 0.77500004 4284771682
0.37303251 0.23738654 0.77500004 4280167706
0.37675628 0.23775639 0.77500004 4279773461
0.38541645 0.23578268 0.77500004 4285957494
0.31789422 0.24001954 0.77800006 4286595136
0.3479405 0.24217485 0.778 4284639843
0.35148847 0.24359147 0.77625006 4285297259
0.363024 0.24407037 0.77550006 4286744962
0.367351 0.24414322 0.77550006 4288124047
0.37249362 0.24194682 0.77500004 4284509257
0.37683561 0.24202615 0.77500004 4284375371
0.3192676 0.24578437 0.77600002 4286790973
0.34714893 0.24689183 0.77850008 4286283900
0.35275531 0.24727364 0.77775007 4286547584
0.35737652 0.24705854 0.77580005 4285955446
0.36277851 0.2479564 0.77600002 4287600017
0.36717176 0.24718714 0.77500004 4288123793
0.38349915 0.24857228 0.77500004 4287315262
0.35399094 0.25192943 0.77833343 4289361016
0.35706639 0.25277072 0.77633333 4288834931
0.36217746 0.25205192 0.77571434 4288510080
0.36725026 0.25145882 0.77500004 4288375669
0.37195972 0.25190476 0.77500004 4288104785
0.35463703 0.25647181 0.77800006 4287834933
0.35721707 0.25710174 0.77649999 4287900469
0.36270508 0.25712734 0.77759999 4288498517
0.36766806 0.25784439 0.77737498 4288433493
0.37254712 0.25758731 0.77600002 4288232256
0.37789708 0.25849992 0.77560008 4288035131
0.38152921 0.25817132 0.77500004 4288368460
0.35778126 0.26207131 0.77857155 4287377460
0.36243168 0.26229832 0.77900004 4286919221
0.36700323 0.26258579 0.77633339 4286396728
0.37253085 0.26275432 0.77649999 4286264111
0.37740171 0.26254636 0.7762 4285610801
0.35806358 0.26618132 0.77800006 4283520329
0.36287838 0.26660731 0.77900004 4286679165
0.36753437 0.26729661 0.77820003 4285233769
0.37250146 0.26763287 0.77759999 4283326024
0.37711591 0.26723772 0.77675003 4283063362
0.36405647 0.27093664 0.77900004 4280567341
0.36653024 0.27147323 0.77724999 4280436521
0.37214833 0.27156597 0.77875006 4280436264
0.37733871 0.27163339 0.77700007 4281358133
0.36742741 0.27532101 0.77900004 4280372266
0.37423927 0.27910593 0.77700001 4280966201
0.37707707 0.27645352 0.77850008 4280767024
0.37289172 0.28312564 0.77625006 4280967227
0.367452 0.28709182 0.77766675 4280836159
0.37002072 0.28547853 0.77700001 4280901695
0.37007695 -0.023934774 0.78200006 4279769355
0.34363672 0.058556981 0.78000003 4286743686
0.34664461 0.058708485 0.78200006 4285427312
0.34495971 0.060903944 0.78300005 4284880153
0.34860015 0.062046271 0.78400004 4285603619
0.35260636 0.062104672 0.78199995 4285668642
0.35768032 0.064952925 0.78050005 4285865512
0.36064568 0.064915471 0.78000003 4286260525
0.3492254 0.067272872 0.78300005 4287716196
0.35242391 0.067275569 0.78299999 4287125344
0.3567383 0.067752019 0.78142864 4287128941
0.36088139 0.068131633 0.78050005 4287722106
0.37690887 0.068160847 0.78049999 4286064939
0.34860942 0.072669744 0.78400004 4286086269
0.35220516 0.072535932 0.78250003 4286481026
0.35738683 0.072511882 0.78216672 4286481028
0.3613503 0.072456375 0.78150004 4285427315
0.37346837 0.073398679 0.78000003 4284948768
0.3769179 0.07239458 0.78049999 4285542963
0.34850293 0.076895252 0.78375006 4283322961
0.3529999 0.077777863 0.78188896 4283915354
0.35685879 0.075578794 0.78100002 4281678137
0.36279649 0.076550171 0.78000003 4282988857
0.36848834 0.076913767 0.78000003 4284426020
0.37264332 0.075560406 0.78050005 4282717968
0.376095 0.075616352 0.78100002 4281996301
0.34257948 0.082385294 0.78299999 4285295982
0.34746274 0.081761427 0.78242862 4285296495
0.35227278 0.082792073 0.78120005 4284835944
0.35603237 0.084100425 0.78150004 4286677892
0.34341529 0.087037742 0.78266668 4283717208
0.34718508 0.087556675 0.78219998 4285033068
0.35223877 0.087124713 0.78016669 4284769382
0.35642329 0.08817064 0.78000003 4287072137
0.36335224 0.087656185 0.78000003 4285160023
0.36815345 0.086080723 0.78000003 4284096794
0.31401944 0.093418896 0.78000003 4286151567
0.34300116 0.09064851 0.78333336 4286217601
0.34748992 0.093058474 0.78314286 4287007884
0.35225558 0.093098462 0.78085721 4286875787
0.36268514 0.093755662 0.78060001 4287401358
0.3678157 0.093133114 0.78000003 4285478961
0.31422043 0.097707085 0.78050005 4286481045
0.34693357 0.09808249 0.7816 4284314690
0.35218295 0.097680271 0.78000003 4283721024
0.35644528 0.098746791 0.78000003 4282140197
0.36172804 0.097430877 0.78066665 4279900440
0.36818218 0.096661285 0.78000003 4282724651
0.31422043 0.10193751 0.78050005 4286416792
0.34330902 0.10241403 0.78400004 4284118357
0.34789184 0.10182585 0.78350008 4284382026
0.35271707 0.10206378 0.78116673 4284309556
0.35645023 0.10086235 0.78000003 4285298249
0.36071637 0.10087291 0.78000003 4279703825
0.31482491 0.10954805 0.78200006 4285429636
0.31522712 0.10650603 0.78300005 4285955467
0.34801859 0.10929586 0.78375006 4282080899
0.35226253 0.10753989 0.78250003 4282928992
0.35593048 0.10736775 0.78116673 4285741346
0.3148253 0.11166677 0.78200006 4287534759
0.31522831 0.11393105 0.78300005 4283259758
0.34745407 0.11300196 0.78366667 4283132814
0.35242009 0.11247746 0.78140008 4283065460
0.35637808 0.11304379 0.78133339 4284048725
0.34333685 0.11835686 0.78400004 4284053139
0.34716558 0.11715297 0.78299999 4284447385
0.35260391 0.11684545 0.78083342 4283459720
0.35649306 0.11673266 0.78000003 4282210141
0.37146997 0.11784568 0.78000003 4286864719
0.31563473 0.12469818 0.78400004 4285687409
0.34795126 0.12236235 0.78233337 4284512922
0.35259432 0.12213206 0.78077787 4282605962
0.37794152 0.12423316 0.78000003 4284295701
0.31442863 0.1273956 0.78100002 4287069574
0.34788817 0.12808526 0.78360003 4284512921
0.35278523 0.12749408 0.78116673 4281948547
0.35653201 0.12837604 0.78000003 4281816701
0.31563914 0.13213421 0.78400004 4287664278
0.34336615 0.13111569 0.78400004 4285960102
0.34719461 0.13235623 0.78228575 4285432733
0.35198846 0.1324106 0.78071433 4283592337
0.35740733 0.13125797 0.78033334 4283658129
0.36188555 0.13051483 0.78000003 4283457646
0.38230252 0.13380082 0.78000003 4286530860
0.31484002 0.13921514 0.78200006 4286740097
0.31564328 0.13744621 0.78400004 4286806404
0.34691402 0.13777979 0.78150004 4286286498
0.35167852 0.13806298 0.78100002 4283986321
0.31444165 0.14327104 0.78100002 4288978597
0.34339958 0.14281592 0.78400004 4285170077
0.34664693 0.14240512 0.7816667 4284709529
0.35261407 0.14224708 0.78066665 4282409095
0.31404147 0.14520204 0.78000003 4289176490
0.3472546 0.14690001 0.78299999 4283066509
0.35278615 0.14761177 0.78100002 4281686403
0.35684615 0.14859545 0.78050005 4281489280
0.34285378 0.15425901 0.78266668 4286747043
0.3477104 0.15202172 0.78337502 4283789458
0.35238099 0.15270099 0.78100002 4282146697
0.35663345 0.15168041 0.78000003 4281818245
0.34301281 0.15751474 0.78300005 4287075491
0.34759188 0.15718514 0.78125006 4284315025
0.35247195 0.15721129 0.7802 4282146439
0.35737774 0.15733838 0.78000003 4282015110
0.34932053 0.16279273 0.78266668 4282934663
0.3524394 0.16225109 0.78142864 4282212230
0.35663828 0.16242127 0.78066677 4282015109
0.31782502 0.16933857 0.78400004 4286942094
0.34763074 0.16778219 0.78283334 4283329931
0.35218868 0.16743307 0.78039998 4282475913
0.38217154 0.16756947 0.78066665 4285038480
0.38522711 0.1680226 0.78100002 4285826194
0.31661412 0.17080981 0.78100002 4287007886
0.34844536 0.17243452 0.78299999 4283724944
0.35240215 0.17304042 0.78080004 4283461773
0.38368237 0.17098877 0.78000003 4286220692
0.34801632 0.17775536 0.78299999 4285104791
0.35259071 0.17733572 0.78099996 4284184209
0.35701627 0.17725417 0.78050005 4283790222
0.34839869 0.18302701 0.78275007 4285498518
0.3521938 0.18225081 0.78020006 4284709780
0.3478924 0.18781778 0.78275001 4284973460
0.35228536 0.1870594 0.78016669 4284907669
0.38061255 0.18799113 0.78000003 4288317584
0.34779677 0.19249929 0.78228575 4284841873
0.3518624 0.19269273 0.78120005 4284710290
0.3560752 0.19425839 0.78050005 4284973201
0.38066211 0.19225459 0.78000003 4289105045
0.34897295 0.1976593 0.78299999 4284381582
0.35270357 0.19792032 0.78250003 4284513169
0.35612062 0.19730438 0.78133339 4285039252
0.38181347 0.19760075 0.78000003 4287594372
0.38508824 0.19870964 0.78000003 4287861137
0.34887397 0.20241006 0.78350008 4284644239
0.35329577 0.20260598 0.78133339 4285104531
0.3557387 0.20102108 0.78200006 4285105045
0.3743113 0.20497578 0.78000003 4286680209
0.34847379 0.2062809 0.78333336 4285630100
0.3527309 0.20749313 0.78237504 4286155670
0.35751846 0.20878108 0.78100002 4287009689
0.36223912 0.20776735 0.78033334 4287272860
0.3667585 0.20701942 0.78000003 4286680980
0.37289134 0.20724842 0.78059995 4286549394
0.37810683 0.20955633 0.78100002 4286023821
0.38221735 0.20948172 0.78050005 4286877844
0.38523877 0.20939407 0.78000003 4287205774
0.31932718 0.2135368 0.78200006 4287468174
0.34795365 0.2120636 0.78366667 4286484115
0.35202512 0.21259107 0.78250003 4286286994
0.35755748 0.21251424 0.78100002 4286220687
0.36115435 0.2121973 0.78100008 4286680723
0.37899658 0.21264388 0.78050005 4285891720
0.38250887 0.21282664 0.78100002 4286614669
0.38578111 0.21287544 0.78100002 4286416001
0.34987825 0.21831788 0.78300005 4286220172
0.35182637 0.21667171 0.7816 4286154893
0.35718429 0.21970744 0.78000003 4285497477
0.36364195 0.21765013 0.78000003 4285694856
0.36580634 0.21767709 0.78000003 4286089100
0.38341808 0.21698837 0.78050005 4286482567
0.38560095 0.21702206 0.78050005 4285956221
0.34390375 0.22495794 0.78400004 4286416000
0.34838274 0.22288661 0.78299999 4286219138
0.35256603 0.2222534 0.78166676 4285825154
0.35765201 0.22270086 0.78000003 4285496960
0.38224912 0.22223401 0.78016669 4285694080
0.38664046 0.22125684 0.78025001 4286154114
0.31768152 0.22766072 0.78300005 4286285174
0.34363496 0.22785632 0.78166676 4284705124
0.34762675 0.22730985 0.78160012 4286021240
0.35166204 0.22685121 0.78033334 4285626740
0.34332839 0.23254964 0.78250003 4281942327
0.34767529 0.23158666 0.78160012 4282994504
0.35152075 0.23305675 0.78025007 4283587155
0.35521024 0.23463267 0.78000003 4284047705
0.34309283 0.23705776 0.78266668 4283061319
0.34690019 0.23675406 0.78150004 4283784534
0.344515 0.24166662 0.78250003 4282205242
0.34648556 0.24368262 0.78200006 4286087289
0.34664789 0.24819699 0.78100002 4288783778
0.35217676 0.24957152 0.78000003 4288783780
0.34784028 0.25274709 0.78233337 4288444026
0.3520205 0.25324771 0.78033334 4287511362
0.32613197 0.2562927 0.78200006 4287645767
0.34892973 0.25763518 0.78300005 4287769137
0.35236645 0.25781128 0.78160006 4287769394
0.32970896 0.26424912 0.78000003 4280370476
0.33010313 0.26244357 0.78100002 4285428834
0.34874082 0.26370317 0.78400004 4286852142
0.35263643 0.2635648 0.78175008 4286851628
0.35566115 0.26233062 0.7816667 4287114032
0.36328107 0.26371849 0.78000003 4286395445
0.32976803 0.26853514 0.78000003 4281028404
0.33100635 0.26741624 0.78300005 4281421620
0.3527123 0.26721328 0.78299999 4287202422
0.3572863 0.26824668 0.78100002 4286745469
0.36260545 0.2693136 0.78066665 4288523418
0.35871989 0.27252382 0.78400004 4281223987
0.36294872 0.2732935 0.78220004 4280042278
0.37380883 0.27398628 0.78100002 4280371752
0.37600732 0.27403709 0.78100002 4280701231
0.33372429 0.27641457 0.78400004 4281422650
0.35969311 0.27778545 0.78350008 4280307503
0.36251855 0.27749974 0.78250003 4280307502
0.36652765 0.27743733 0.78049999 4280833076
0.37278795 0.27721077 0.78100002 4280241194
0.37584484 0.2771104 0.78050005 4280768308
0.33649141 0.28367847 0.78000003 4281557064
0.3579472 0.28294381 0.78285724 4280703288
0.3624551 0.28251609 0.78260005 4282478674
0.3668395 0.28224483 0.78133339 4283333726
0.37224543 0.28195119 0.78116673 4280571443
0.34261689 0.28737885 0.78400004 4280703552
0.34614295 0.28889406 0.78200006 4280967490
0.35250098 0.28974563 0.78400004 4280573499
0.35717943 0.28793573 0.78299999 4280375865
0.3628664 0.28751084 0.78116673 4280637753
0.36740276 0.28658798 0.78233337 4280769852
0.37014481 0.28508711 0.78200006 4280506164
0.37722608 -0.01984876 0.78800005 4279703048
0.32196516 0.062235091 0.78650004 4285867305
0.33325368 0.062355421 0.78800005 4286390567
0.33739939 0.062001489 0.78620005 4285798943
0.34278426 0.062477399 0.78680003 4285864222
0.34690982 0.06318745 0.78500003 4286127907
0.31816164 0.069560938 0.78500003 4286788153
0.34395194 0.067696765 0.78800005 4287125854
0.34702161 0.067552544 0.78628582 4286007376
0.35011941 0.069572173 0.78500003 4288453537
0.31856632 0.072843581 0.78600001 4286527039
0.34331036 0.073545724 0.78775007 4285821814
0.34606975 0.072805151 0.78550005 4286152063
0.31876823 0.077153377 0.78650004 4284957515
0.33903661 0.078469299 0.78900003 4285410872
0.3426615 0.077665985 0.78625011 4284374110
0.34585327 0.077014312 0.78500003 4283256912
0.33946115 0.080454752 0.78750002 4284893520
0.34053546 0.083657242 0.78750002 4285754740
0.34095758 0.087758332 0.78600001 4284899176
0.33925456 0.091067329 0.78700006 4284835700
0.34217572 0.093124546 0.78633338 4287928734
0.34800923 0.09297467 0.78500003 4286349187
0.33904946 0.095574357 0.78900003 4282996082
0.34268445 0.097454637 0.78687507 4285761634
0.34587699 0.097227633 0.78500003 4284116292
0.34119093 0.10273552 0.78650004 4284447577
0.34717822 0.10367987 0.78550005 4283131734
0.34260336 0.10746828 0.78657144 4282211718
0.347294 0.10690821 0.78575003 4281817212
0.35017088 0.10574822 0.78500003 4282343298
0.3390722 0.1148219 0.78900003 4281949315
0.34238753 0.11272248 0.78737503 4283330452
0.31623569 0.11748795 0.78550005 4286344832
0.33921802 0.11818691 0.78766674 4282278281
0.34195775 0.11701848 0.78575003 4283724950
0.31684113 0.12197518 0.78700006 4288451229
0.33808121 0.12184783 0.78833342 4282146441
0.34236601 0.12195522 0.78666669 4283856281
0.34592494 0.12277059 0.78500003 4284842140
0.33908987 0.12551796 0.78900003 4283067796
0.34256944 0.12735996 0.78711116 4284381850
0.34593523 0.12702926 0.78500003 4284973726
0.33910471 0.13300686 0.78900003 4282672778
0.34201935 0.1328581 0.78680003 4285039261
0.31604412 0.13549396 0.78500003 4287728017
0.3381128 0.1375251 0.78833342 4283198863
0.34297726 0.13745628 0.78728575 4285959331
0.34596178 0.13661359 0.78500003 4287075750
0.3379426 0.14152049 0.78875005 4283329936
0.34163126 0.14234442 0.78733331 4284250006
0.33914191 0.14798984 0.78900003 4284052626
0.34221336 0.14747165 0.78616667 4283986835
0.3392992 0.15308256 0.78766674 4286944676
0.34201077 0.15164287 0.7856667 4286155937
0.31942365 0.15951441 0.78800005 4286022801
0.33794212 0.15764344 0.78757149 4287207330
0.34002846 0.15703428 0.78600001 4287667365
0.31902456 0.16251391 0.78700006 4286285200
0.3389757 0.16287769 0.78850007 4286878624
0.3419396 0.16224603 0.78640002 4287207332
0.34683871 0.16257192 0.78580004 4285629851
0.31964183 0.16710228 0.78850007 4287008406
0.33856213 0.16694972 0.78750002 4286155933
0.34271088 0.16719866 0.78642863 4285827227
0.34629691 0.16656166 0.78550005 4284709782
0.33922002 0.1704817 0.78900003 4286090912
0.34245992 0.17250028 0.78712505 4285367705
0.34632909 0.17296831 0.78550005 4284381846
0.34262523 0.17751767 0.78683335 4285761688
0.34612584 0.17605914 0.78500003 4284644756
0.32163057 0.18304044 0.78800005 4287007884
0.33927405 0.18227433 0.78900003 4286418330
0.34308478 0.18202758 0.78783339 4286155673
0.34645677 0.18262063 0.7856667 4285827738
0.32042101 0.18660912 0.78500003 4286350208
0.3392905 0.18549207 0.78900003 4286484379
0.34304306 0.18734419 0.78766674 4285893272
0.34748712 0.18686263 0.78550005 4285301908
0.32423261 0.19399957 0.78900003 4285955450
0.34235123 0.19229527 0.78600007 4285958293
0.34621722 0.1910104 0.78500003 4284841873
0.33936489 0.19837123 0.78900003 4286615706
0.34259704 0.19670093 0.78650016 4286352794
0.34712899 0.19751336 0.78533334 4284907152
0.32387269 0.204466 0.78800005 4285689454
0.34241581 0.20148817 0.78850007 4286484377
0.34646139 0.20242177 0.78783339 4285695381
0.32429498 0.20687176 0.78900003 4286083442
0.34289873 0.2083369 0.78866673 4286944409
0.3462474 0.20763621 0.78725004 4286286998
0.34248722 0.21115629 0.78850007 4286878359
0.34613132 0.21234703 0.78640002 4286483858
0.32219845 0.21759628 0.78900003 4287468174
0.34320304 0.21895204 0.78750008 4286745485
0.34693965 0.21736912 0.78616667 4286417293
0.34280124 0.22243215 0.78650004 4286416003
0.34669492 0.22219005 0.78550005 4286284930
0.34202579 0.22739246 0.78659999 4285955450
0.32190901 0.23450083 0.78800005 4281024040
0.33878717 0.23412728 0.78866673 4281484074
0.34148896 0.23223191 0.78700006 4283851089
0.32233459 0.23695117 0.78900003 4283785291
0.33926499 0.23788795 0.78800005 4279905815
0.34013724 0.23700385 0.78500003 4280102169
0.32114446 0.24034119 0.78600001 4286333501
0.33867207 0.24319123 0.78775007 4285679160
0.34199804 0.24287605 0.78557152 4284831050
0.32396796 0.24619541 0.78750002 4287250241
0.3380585 0.24634308 0.78750002 4286523430
0.34296748 0.2476331 0.78625005 4285875525
0.34505326 0.24919738 0.78600001 4287596677
0.32556513 0.25112346 0.78600001 4287316290
0.33986926 0.2533108 0.78900003 4290411135
0.34291092 0.25220859 0.78766674 4287119173
0.34511098 0.25351024 0.78600001 4285081132
0.32888404 0.257617 0.78600001 4286790971
0.33122602 0.25861222 0.78900003 4287445305
0.34351557 0.25658569 0.78725004 4287445572
0.34658363 0.25768629 0.78550005 4287638067
0.33218846 0.26196656 0.78600001 4283715133
0.3441321 0.26186568 0.78850007 4289289828
0.34669256 0.26252812 0.78600001 4286720558
0.35264638 0.26209825 0.78550005 4287835186
0.33569381 0.2673277 0.78900003 4280040995
0.34330511 0.26526791 0.78900003 4282921771
0.34815344 0.26755655 0.78750002 4284835160
0.35077465 0.26764166 0.78600001 4286082145
0.33577096 0.27274954 0.78900003 4280832049
0.35270846 0.27365553 0.78766674 4280503085
0.35721239 0.27256125 0.78633338 4280172582
0.36027256 0.27289143 0.78500003 4280172069
0.33496815 0.27530584 0.78700006 4280963381
0.33721659 0.27967462 0.78700006 4282804817
0.35304767 0.27735481 0.78757149 4281162813
0.35729644 0.27734363 0.78550005 4280109612
0.33682358 0.28148589 0.78600001 4281817408
0.35289258 0.28237295 0.78771436 4280308530
0.35605988 0.28148705 0.78500003 4280242992
0.34344685 0.28682882 0.78850007 4280637760
0.34743732 0.28872481 0.78750002 4282019407
0.35267961 0.28756157 0.787 4280441400
0.34966126 0.29004669 0.78500003 4280640321
0.32743236 0.062314015 0.792 4286259494
0.3313061 0.062593028 0.79100001 4286455846
0.32334724 0.067006707 0.79250002 4286590772
0.33450514 0.067090116 0.79350007 4286588198
0.33748248 0.066699699 0.79140002 4286456356
0.34192923 0.06739606 0.79075003 4284816930
0.33457661 0.072479352 0.79366666 4286261033
0.33761686 0.072646037 0.79214287 4286195243
0.34160891 0.071381256 0.79100001 4287062372
0.33471894 0.078963615 0.79400003 4285869627
0.33782718 0.077498622 0.79220003 4285605940
0.34268469 0.076430097 0.79000002 4282004790
0.32099688 0.080909282 0.79200006 4286344823
0.33450931 0.082138181 0.79350007 4285216069
0.33774582 0.082200021 0.79200006 4285084994
0.33885321 0.087059356 0.79214287 4285487723
0.32180649 0.0918689 0.79400003 4282927202
0.33472559 0.094023503 0.79400003 4283257717
0.33807474 0.093224108 0.79175007 4283585907
0.33301884 0.097066514 0.79250002 4282404468
0.33790204 0.097641639 0.79133338 4283457397
0.34162945 0.097838774 0.79000002 4284381262
0.32140151 0.10249531 0.79300004 4284114558
0.33359054 0.10178396 0.79300004 4282275455
0.33770818 0.10257802 0.79149997 4283459964
0.33452481 0.10794076 0.79350007 4282146441
0.33722708 0.1077742 0.79225004 4282080392
0.34035134 0.10774418 0.79200006 4281817219
0.3345288 0.1122419 0.79350007 4282541199
0.33755866 0.11265386 0.79133338 4282015109
0.34035546 0.11096447 0.79200006 4282146696
0.33446422 0.11759471 0.79333335 4282475406
0.33674636 0.11776982 0.79160005 4281949319
0.33454102 0.12299602 0.79350007 4282409613
0.33649683 0.12302186 0.79133338 4282146441
0.32120755 0.12712447 0.79250002 4286278006
0.3347578 0.12737918 0.79400003 4282804626
0.33786824 0.12764633 0.79116672 4282804625
0.32141322 0.13150486 0.79300004 4287991446
0.33412153 0.13325582 0.79375005 4283264658
0.3370848 0.1324026 0.79183334 4282673038
0.33335283 0.13749385 0.79233336 4283987863
0.33595619 0.13709603 0.79000002 4282804620
0.32142332 0.14224902 0.79300004 4285357419
0.33436221 0.14227062 0.79300004 4284381847
0.3368282 0.14287221 0.79033333 4283527313
0.32156503 0.14768773 0.79333335 4287860890
0.33479303 0.14675719 0.79400003 4284776347
0.33711767 0.147438 0.7918334 4284052882
0.32103223 0.15280697 0.79200006 4286083715
0.33698866 0.15274529 0.79150003 4285761691
0.32043123 0.15680541 0.79050004 4285957525
0.33634809 0.15723574 0.79250002 4286418590
0.33710289 0.16298535 0.79220003 4286220954
0.334849 0.16722555 0.79400003 4285564568
0.33703697 0.1677848 0.79150003 4285564311
0.33758593 0.17235598 0.79275 4286221724
0.34008899 0.17306274 0.79100001 4286221982
0.32337868 0.17759264 0.79233336 4286810762
0.33815584 0.17836566 0.79233336 4286681499
0.34010327 0.17628662 0.79100001 4286550175
0.33720696 0.18289441 0.79175001 4286878618
0.33812007 0.18713658 0.79300004 4286943898
0.34016201 0.18811332 0.79100001 4286484379
0.32524639 0.19138734 0.79150003 4286876552
0.33941925 0.19205371 0.79175001 4286812825
0.34018606 0.19241646 0.79100001 4286549912
0.32506892 0.19771636 0.79100001 4286416000
0.33901298 0.19695817 0.79200006 4286615448
0.3246837 0.2028363 0.79000002 4288586656
0.32508412 0.20094211 0.79100001 4286087035
0.33908191 0.20190723 0.79166669 4286681496
0.34068334 0.20343803 0.79200006 4286813338
0.32471779 0.20928341 0.79000002 4286084210
0.33986825 0.20938009 0.79000002 4286812309
0.34209514 0.20626144 0.79120004 4286944410
0.32535279 0.21291253 0.79150003 4287532940
0.33914089 0.21240874 0.79333335 4286746516
0.34195483 0.21342996 0.79100001 4286812308
0.33945811 0.2169161 0.79400003 4286417549
0.34235173 0.21715489 0.79160005 4286811792
0.32405636 0.22207934 0.79350007 4286942598
0.33963406 0.22278574 0.79175001 4286088068
0.34081352 0.22070685 0.79200006 4286613899
0.32402429 0.22743653 0.79333335 4285035108
0.33883488 0.22726776 0.79233336 4285758589
0.3404499 0.22798446 0.79100001 4285758331
0.3235184 0.23244959 0.79200006 4280627230
0.33754405 0.23249407 0.79174995 4283720528
0.34004992 0.2309327 0.79000002 4286087546
0.3227607 0.23940758 0.79000002 4285348912
0.32653764 0.23630357 0.79400003 4280431389
0.33759624 0.23790273 0.79175001 4280037400
0.3257795 0.2432749 0.79200006 4286724924
0.33708143 0.2426029 0.79300004 4284044346
0.32842061 0.24902174 0.79300004 4287116855
0.33635888 0.24755435 0.79220003 4286721068
0.32872522 0.25273305 0.79100001 4287642944
0.3310639 0.2537024 0.79400003 4287313207
0.33714017 0.25256452 0.79214293 4289288028
0.34026009 0.25038394 0.79000002 4286720558
0.33356488 0.25852346 0.79200006 4287575351
0.33694935 0.25756973 0.79228574 4287376948
0.34123203 0.25844544 0.79033333 4291927974
0.33427408 0.26146305 0.79100001 4286986036
0.3385253 0.26333687 0.79325002 4285673516
0.34182969 0.26256645 0.79075003 4287974993
0.33763173 0.2674768 0.79100001 4283983955
0.34221658 0.26780486 0.79233336 4286679158
0.34574041 0.26847079 0.79200006 4288191887
0.33961999 0.27089316 0.79300004 4280239657
0.34253326 0.2724463 0.79359996 4280107556
0.34756145 0.27215764 0.79100007 4280304681
0.35283947 0.27244043 0.79050004 4279842847
0.3559154 0.27232569 0.79000002 4280039200
0.33887845 0.27782622 0.79100001 4283792734
0.34250751 0.27630845 0.79339999 4281030453
0.34770653 0.2768614 0.792 4280109610
0.35031986 0.27945325 0.79200006 4280372784
0.3429476 0.28148979 0.79320002 4281687873
0.3486177 0.28291994 0.792 4281754697
0.34251568 0.28569514 0.79150003 4280900674
0.34807557 0.28635055 0.79060006 4283860588
0.35175714 0.28533491 0.79000002 4280439606
0.32908669 0.064065464 0.79600006 4286653481
0.33082709 0.063984983 0.79500002 4286587175
0.32775205 0.067470796 0.79800004 4286260778
0.33179531 0.067412607 0.79733342 4286391078
0.32477486 0.07053531 0.79600006 4286459188
0.32518244 0.073862694 0.79700005 4286591291
0.33270377 0.07229545 0.79640007 4286260778
0.32559013 0.077198215 0.79800004 4285019970
0.33235621 0.077493854 0.79660004 4285737268
0.33513981 0.076909058 0.79500002 4285802802
0.32221249 0.083369516 0.79500002 4284829535
0.33382264 0.082500458 0.79700005 4285347401
0.32248229 0.087749667 0.79566669 4283976545
0.33284646 0.086845234 0.79725009 4284565343
0.33617598 0.088155314 0.79540002 4285422193
0.32221171 0.094138406 0.79500002 4282927715
0.32991639 0.094494469 0.79800004 4282271339
0.33228022 0.092215993 0.79699999 4282795881
0.33643603 0.092046179 0.79550004 4283716722
0.3224144 0.097429708 0.79550004 4285099911
0.32991698 0.096656621 0.79800004 4281811047
0.33124974 0.097494915 0.796 4281681002
0.32599905 0.10327115 0.79900002 4281877867
0.33254009 0.10294969 0.79650003 4281420663
0.3351528 0.10275925 0.79500002 4282407557
0.32221293 0.10813862 0.79500002 4285627531
0.32717136 0.10751168 0.79833341 4284379529
0.33178741 0.10737145 0.79728568 4281749884
0.32241663 0.11251803 0.79550004 4286285463
0.33243877 0.11263151 0.7978 4283130760
0.323026 0.11704855 0.79700005 4283851382
0.33280846 0.11764215 0.79660004 4282671753
0.3226231 0.12229306 0.79600006 4287529357
0.32808709 0.12289307 0.79812497 4283984518
0.33229905 0.12279489 0.79640007 4282146439
0.32741806 0.1278265 0.79820001 4285098627
0.33203661 0.12803963 0.79680008 4282344074
0.32601333 0.13141753 0.79900002 4286476419
0.33267167 0.1321355 0.79675007 4283133842
0.32276893 0.13745204 0.79633337 4287201420
0.3299484 0.13774711 0.79800004 4285433757
0.33172318 0.13790163 0.79575002 4284710296
0.32674831 0.14224714 0.79900002 4285621624
0.33255917 0.14251077 0.79800004 4284907674
0.32603025 0.14657845 0.79900002 4288979121
0.33290574 0.1473501 0.79725003 4284513687
0.33345139 0.15139654 0.79766673 4284776346
0.3352274 0.15233363 0.79500002 4285236380
0.3265031 0.15872513 0.79833341 4285168527
0.33270493 0.15795945 0.79857147 4284906900
0.33545232 0.1578248 0.79550004 4285893021
0.32673767 0.16262764 0.79800004 4284246651
0.33285251 0.16254738 0.79860008 4284643466
0.33525383 0.16204128 0.79500002 4286616740
0.32484627 0.16761623 0.79600006 4285956494
0.32525444 0.16782688 0.79700005 4286811802
0.33295408 0.16681761 0.79725003 4285169552
0.33527088 0.16743629 0.79500002 4285630361
0.32445177 0.17279866 0.79500002 4287271060
0.33328429 0.17238939 0.79800004 4285892242
0.33528945 0.17283255 0.79500002 4286353051
0.33248267 0.17793348 0.79759997 4286219915
0.33616862 0.17686753 0.79533339 4286681497
0.32733282 0.18289764 0.79666668 4287139472
0.332479 0.18205766 0.79860008 4286482571
0.33574966 0.18277977 0.79600006 4287206810
0.32707846 0.18815109 0.79600006 4286087037
0.33211142 0.18747805 0.79766673 4286679177
0.33621883 0.18839324 0.79533339 4287535516
0.32968241 0.19272707 0.79700005 4288061083
0.33294767 0.19274172 0.79700011 4287403157
0.33677784 0.19246085 0.79575008 4287666846
0.32928315 0.19573037 0.79600006 4285955707
0.33012056 0.19839145 0.79800004 4286021500
0.33746463 0.19769868 0.79680002 4286943895
0.3297393 0.20464471 0.79700005 4288192414
0.3317329 0.20210014 0.79833341 4286021502
0.33688974 0.2027978 0.79640007 4286549651
0.32954997 0.20776726 0.79650009 4286018677
0.33385104 0.20626295 0.79900002 4286678921
0.33900279 0.20778699 0.79720008 4286812309
0.32977515 0.21115011 0.79700005 4286545023
0.3319304 0.2130502 0.79866672 4287204493
0.33763215 0.21241537 0.79750001 4286812051
0.3268109 0.21709964 0.79500002 4287468174
0.33172265 0.2160368 0.79900002 4287205518
0.33743021 0.21728528 0.79657143 4286417291
0.32848299 0.22254404 0.79900002 4286942343
0.33287615 0.22475095 0.79900002 4286022269
0.33734924 0.22325571 0.79820001 4286088323
0.32851982 0.22798645 0.79900002 4286614400
0.33368194 0.22781244 0.79825008 4285824376
0.33690009 0.2270627 0.79550004 4285759099
0.32773742 0.23284458 0.79699999 4282074933
0.33304125 0.23236522 0.79820001 4283325511
0.33639565 0.2319424 0.79550004 4284180571
0.32910439 0.23855846 0.7966668 4281088805
0.33306786 0.23713998 0.79771429 4279970838
0.33590323 0.23791233 0.79550004 4280299803
0.32872266 0.24188048 0.79566669 4286400832
0.3326641 0.24222796 0.79550004 4283975221
0.3357231 0.24102046 0.79500002 4279839251
0.32921743 0.24638988 0.79500002 4287050550
0.33314025 0.24738689 0.796 4286655790
0.33578908 0.24754189 0.79500002 4286655018
0.33286506 0.25209448 0.79575002 4287311924
0.33369431 0.25622255 0.79500002 4287902521
0.34652844 0.28261557 0.79500002 4284780145
0.32857317 0.071973205 0.80000001 4286195758
0.33094704 0.072018817 0.80050004 4286129452
0.32854462 0.078055032 0.80125004 4285476923
0.33101615 0.077456109 0.80066675 4285606195
0.32800072 0.082939729 0.8012501 4284693581
0.33223879 0.082913823 0.801 4285282379
0.3274256 0.087416351 0.80250001 4284304226
0.33078891 0.087444127 0.80274999 4284237151
0.32776356 0.092639484 0.80066675 4282598499
0.33074215 0.090396248 0.80000001 4283385959
0.32800323 0.098136 0.80125004 4281876835
0.3307445 0.099066451 0.80000001 4281220197
0.32840046 0.10212628 0.80133337 4281352808
0.33115917 0.10244581 0.80100006 4281024363
0.32824093 0.10834461 0.80050004 4284708242
0.32769981 0.11322647 0.80050004 4286483873
0.33116537 0.11438354 0.80100006 4285432992
0.32790667 0.11763752 0.80100006 4286155425
0.3309609 0.11756547 0.80050004 4284512407
0.3264136 0.1207418 0.80000001 4284636277
0.32841787 0.13325094 0.80133343 4286085000
0.33118194 0.13283648 0.80100006 4282541192
0.32802457 0.13721779 0.80125004 4286282889
0.33077246 0.13592356 0.80000001 4283856525
0.32788217 0.14242624 0.80000001 4286147710
0.33119673 0.14369553 0.801 4284446865
0.32830107 0.14839534 0.80100006 4286480270
0.33161741 0.14822292 0.80200005 4284052875
0.32804635 0.15242529 0.80125004 4286083202
0.33180061 0.15268226 0.80066675 4284447378
0.32804096 0.15622936 0.80033332 4284839050
0.33210057 0.15554649 0.80050004 4284578707
0.33082473 0.16412799 0.80000001 4283722362
