# .PCD v0.7 - Point Cloud Data file format
VERSION 0.7
FIELDS x y z rgba
SIZE 4 4 4 4
TYPE F F F U
COUNT 1 1 1 1
WIDTH 1092
HEIGHT 1
VIEWPOINT 0 0 0 1 0 0 0
POINTS 1092
DATA ascii
0.33035907 0.055282675 0.76400006 4287006856
0.36819491 0.05728171 0.76250005 4284558376
0.37221128 0.059165623 0.76000005 4290295719
0.37417489 0.061549596 0.76400006 4290295460
0.37481937 0.069572017 0.76100004 4290428074
0.37581325 0.072862037 0.76300001 4290100395
0.30677497 0.077844918 0.76200002 4283389775
0.30510843 0.09655071 0.76300001 4285822799
0.30510795 0.10378549 0.76300001 4285151788
0.3786529 0.10457835 0.76000005 4290493614
0.37966001 0.10692437 0.76200002 4290033065
0.38066748 0.10928144 0.76400006 4290624432
0.30431151 0.12206875 0.76100004 4284509816
0.30431506 0.12928765 0.76100004 4286218122
0.30551249 0.12565665 0.76400006 4286417296
0.30531681 0.13281538 0.76350003 4285627265
0.38099697 0.15502919 0.76400006 4288192414
0.30977327 0.1836846 0.76400006 4287666082
0.30896994 0.18527359 0.76200002 4287928739
0.37963668 0.18859264 0.76050007 4290692038
0.38134256 0.18632521 0.76400006 4291216843
0.31192064 0.19822808 0.76400006 4288718252
0.38021269 0.21062361 0.76100004 4290364103
0.38199189 0.21874005 0.76000005 4290429894
0.38435799 0.23779297 0.76400006 4285552976
0.38291728 0.24001305 0.76100004 4289636771
0.37980556 0.24899 0.76300001 4285485646
0.37824446 0.25349772 0.76400006 4287850343
0.37663662 0.25703907 0.76200002 4286016102
0.37413222 0.26186648 0.76400006 4284969569
0.37387967 0.27105623 0.76300001 4281949254
0.37234831 0.27667078 0.76400006 4281949255
0.36828473 0.28116551 0.76200002 4281821520
0.39832118 -0.0089233313 0.76600003 4280428053
0.33286911 0.055355866 0.76500005 4286612612
0.33708739 0.055538304 0.76750004 4286678918
0.34789345 0.055438053 0.76600003 4288387997
0.35847002 0.057712629 0.76850003 4287136897
0.3618561 0.057754509 0.76900005 4286610807
0.36687973 0.057725124 0.76850003 4285215022
0.30879167 0.063810647 0.76700002 4284162332
0.37613866 0.063955337 0.76800001 4288182377
0.30838791 0.067877777 0.76600003 4286744190
0.37663347 0.066124924 0.76900005 4287128405
0.37705705 0.0772551 0.76550007 4286811518
0.30838493 0.08032871 0.76600003 4285824116
0.37829834 0.080633454 0.76800001 4284048212
0.37895045 0.086556002 0.76500005 4290690479
0.38044441 0.088980719 0.76800001 4289900449
0.3071076 0.099264018 0.76800001 4286406737
0.30670759 0.10121267 0.76700002 4284956209
0.30630764 0.10730645 0.76600003 4285824876
0.38217938 0.11283924 0.76700002 4290098857
0.30644253 0.1177327 0.76633334 4283720050
0.38319376 0.11626802 0.76900005 4289834656
0.30591342 0.12789413 0.76500005 4286218121
0.38231248 0.13369891 0.76700002 4288979093
0.38234341 0.13787603 0.76700002 4289176471
0.38286611 0.1411925 0.76800001 4288979093
0.38247377 0.15354693 0.76700002 4288389791
0.30896333 0.15741 0.76733333 4285166733
0.38202402 0.1585696 0.76600003 4288455336
0.30883703 0.16150044 0.76700002 4285759376
0.38281327 0.16306522 0.76750004 4287600284
0.38285643 0.16725552 0.76750004 4287863199
0.383329 0.17268187 0.76833338 4287927451
0.31137055 0.17734568 0.76800001 4286746271
0.31138769 0.18256044 0.76800001 4287534758
0.38295332 0.18293892 0.76733333 4290033083
0.31272706 0.19666399 0.76600003 4288915634
0.31316146 0.20213848 0.76700008 4287928739
0.38192418 0.20436405 0.76900005 4287995814
0.3819721 0.20752747 0.76900005 4287996072
0.38263351 0.21254176 0.76800001 4288390829
0.38428098 0.21706334 0.76900005 4288587692
0.3845439 0.22228456 0.76500005 4288390825
0.385589 0.22497743 0.76700002 4287206804
0.38539886 0.22799885 0.7665 4282798665
0.36305836 0.23361948 0.76900005 4286087809
0.3733148 0.23349422 0.76800001 4281612860
0.37811238 0.23387593 0.76900005 4280563509
0.38479385 0.23493586 0.76500005 4285628774
0.38548309 0.23222373 0.7665 4282009664
0.31300953 0.23840989 0.76600003 4290164153
0.36304086 0.23762015 0.76825005 4282074181
0.37383923 0.23591541 0.76900005 4280165671
0.37815252 0.23599464 0.76900005 4286285702
0.36321715 0.2431369 0.76900005 4284970050
0.36536559 0.24317428 0.76900005 4285562183
0.37397963 0.24333285 0.76900005 4282471470
0.37742218 0.242764 0.76900005 4283393608
0.38429567 0.24323425 0.76800001 4286730058
0.36544281 0.24741173 0.76900005 4285811522
0.37836537 0.24660265 0.76900005 4286934606
0.38243687 0.24677499 0.76700002 4286990921
0.31906667 0.25281769 0.76500005 4285808191
0.38039964 0.2517994 0.76850003 4286858056
0.37766457 0.25869289 0.76700002 4285677887
0.32505924 0.26052254 0.76900005 4281751877
0.37392551 0.2631872 0.76800001 4286808438
0.37560174 0.2628926 0.76700002 4284309587
0.37524149 0.26786625 0.76600003 4282145862
0.36843589 0.2847352 0.76900005 4280834878
0.36534578 -0.025721254 0.77200001 4279703048
0.36956781 -0.021538476 0.77200001 4279637255
0.37052652 -0.023692459 0.77400005 4279571978
0.36417156 -0.01529748 0.77400005 4283059258
0.38965136 -0.011110706 0.77400005 4279836946
0.3489663 0.055942804 0.77300006 4286876554
0.35400543 0.058005411 0.77250004 4286939777
0.35601386 0.05782127 0.77000004 4287663756
0.36490676 0.05790785 0.77100003 4286018156
0.37499306 0.059939705 0.77000004 4284756521
0.31329986 0.060120996 0.77300006 4285081124
0.35998002 0.060222495 0.77400005 4284815128
0.36797327 0.060157452 0.77300006 4285277473
0.37237263 0.060190964 0.77333337 4285475622
0.37694553 0.06235059 0.77400005 4285413676
0.31080404 0.066318043 0.77200001 4288059536
0.37761813 0.068388708 0.77100003 4285942589
0.37877211 0.072793208 0.77333337 4284237626
0.31039745 0.082941748 0.77100003 4284376924
0.37929043 0.082933515 0.77000004 4284639581
0.38077912 0.086405575 0.773 4285032281
0.38219064 0.092529401 0.77149999 4289308569
0.38196501 0.097703643 0.77100009 4288255363
0.38174093 0.10287343 0.77050006 4286542432
0.30790731 0.10995292 0.77000004 4283982939
0.38225657 0.1071992 0.77149999 4288189829
0.3091073 0.11352143 0.773 4284180338
0.38301569 0.11055773 0.77300006 4288518796
0.36755806 0.11903673 0.77400005 4288387209
0.37074569 0.1179996 0.77400005 4287727736
0.38370439 0.11851285 0.77000004 4288914582
0.38406238 0.12280622 0.77066678 4288058505
0.38370776 0.12710154 0.7713334 4288189578
0.36443508 0.1337401 0.77400005 4288515974
0.36762324 0.13270462 0.77400005 4286212702
0.38378549 0.13107987 0.77000004 4288913301
0.3631373 0.13818279 0.77300006 4288452497
0.36725608 0.13781419 0.77316672 4288517775
0.37084967 0.1379821 0.77400005 4288648588
0.38367265 0.13701192 0.77400005 4286806123
0.3616384 0.14143835 0.77399999 4287925125
0.36743897 0.14208084 0.77350008 4288583308
0.37411651 0.14279293 0.77333337 4287526758
0.37704924 0.14319322 0.77350008 4287131742
0.38387993 0.14365721 0.77000004 4288451723
0.38415509 0.14689803 0.77050006 4288780947
0.3100298 0.15377884 0.77000004 4284970115
0.36349005 0.15477738 0.77400005 4287125063
0.36763093 0.15370236 0.77375007 4286208329
0.38399869 0.15248583 0.77225006 4288716955
0.36742035 0.15761177 0.77399999 4286013010
0.37255958 0.1577671 0.77283335 4287600794
0.383596 0.15799262 0.77350008 4288126627
0.36257121 0.16361941 0.77266669 4287331453
0.36801067 0.16246353 0.77366668 4287992469
0.37185985 0.16163126 0.77220005 4287994785
0.37636989 0.16224788 0.77400005 4288060579
0.38387328 0.16125952 0.77400005 4287337886
0.35991183 0.16717771 0.77300006 4287731360
0.3623485 0.1674962 0.77300012 4287403167
0.36745477 0.16727029 0.77316672 4287601058
0.37147072 0.16689985 0.77375001 4287535007
0.383946 0.16864941 0.77400005 4287996074
0.36223829 0.17253065 0.77333337 4287600549
0.36706254 0.17233171 0.77225 4287469734
0.3716633 0.17303355 0.77366668 4287535528
0.37967721 0.17177463 0.77400005 4287075750
0.38291419 0.17286347 0.77400005 4287535528
0.31298277 0.17512709 0.77200001 4286549406
0.36340922 0.17573741 0.77350008 4287732133
0.3672179 0.17660089 0.77250004 4287665830
0.37238014 0.1777765 0.77283341 4287202196
0.37758228 0.17703378 0.77400005 4287598495
0.383461 0.1771169 0.77175009 4287729820
0.31259695 0.18117987 0.77100003 4287206563
0.35834867 0.18108067 0.77400005 4289766579
0.36048394 0.18109815 0.77400005 4288714662
0.37227377 0.18278955 0.77400005 4287523449
0.3758814 0.18214349 0.77333337 4289962930
0.38412252 0.18450409 0.77400005 4288054159
0.37208337 0.18742284 0.77350003 4287191143
0.3769764 0.18724221 0.77399999 4286143852
0.3836652 0.18743613 0.77300006 4288844956
0.36484945 0.19063708 0.77400005 4290616236
0.36918306 0.19490917 0.77400005 4288059817
0.37128356 0.19070338 0.77400005 4285151050
0.3829056 0.19230752 0.7713334 4287467928
0.31475848 0.19585148 0.77100003 4288520876
0.36778355 0.19771349 0.77399999 4287403687
0.37138024 0.19916482 0.77400005 4287075236
0.38256299 0.19737244 0.77050006 4287732643
0.37715769 0.20205963 0.77399999 4287272099
0.38248637 0.20224285 0.77166671 4287930281
0.3160364 0.20713921 0.77400005 4287731360
0.36666039 0.2086347 0.77400005 4286012779
0.37259132 0.20976935 0.77400005 4285089624
0.37761375 0.2081355 0.77328581 4286942621
0.38153425 0.20635869 0.77399999 4287404712
0.36367366 0.21263203 0.77325004 4286667883
0.36725116 0.2128785 0.77400005 4286211956
0.37766421 0.21281999 0.77325004 4285955727
0.38186589 0.21316881 0.77300006 4286417817
0.3638452 0.21693607 0.77350003 4287007380
0.36730772 0.21711874 0.77400005 4286217095
0.37848386 0.21674381 0.77333337 4285496204
0.38393262 0.2173508 0.77266675 4286944156
0.35834253 0.2241374 0.77300006 4286022289
0.36203048 0.22447047 0.77400005 4285694350
0.36723447 0.22303434 0.77366668 4285628558
0.3727079 0.22275595 0.77340001 4285957263
0.37668645 0.2224493 0.77360004 4285299333
0.3825565 0.22237879 0.77300012 4285957262
0.38539308 0.2239888 0.77100003 4286220172
0.35027862 0.2285589 0.77400005 4279049746
0.35884905 0.22760943 0.77400005 4284905321
0.36260903 0.22795181 0.77225 4284049761
0.36819598 0.22758663 0.77099997 4284509549
0.37208831 0.22678111 0.77166671 4283983207
0.37561655 0.22757302 0.77300006 4280759347
0.38294524 0.22813961 0.77380008 4283325275
0.385952 0.22746688 0.77200001 4286615435
0.35302937 0.23389632 0.77400005 4282468682
0.3587949 0.23256031 0.77280009 4284706155
0.36170322 0.23199965 0.77075005 4282140739
0.36788625 0.23236188 0.77074999 4284705640
0.37343326 0.23183794 0.77100009 4284113760
0.3777512 0.23191178 0.77100003 4285824893
0.38263425 0.23262055 0.77166671 4284705898
0.38622108 0.23288274 0.77233338 4281746492
0.34938207 0.23753685 0.77333337 4284311143
0.35316849 0.23784247 0.77300006 4284310886
0.35793415 0.23706947 0.77171427 4285495160
0.3614521 0.23812175 0.77000004 4285955969
0.36788106 0.23716918 0.77000004 4287337105
0.37195498 0.23757181 0.77040005 4285166448
0.37739393 0.23779261 0.77033335 4286022271
0.38215935 0.23757952 0.77050006 4284048993
0.38516116 0.23748989 0.77000004 4283456072
0.3491492 0.24227965 0.77266669 4283519820
0.35240874 0.24257208 0.77116662 4283125308
0.35748932 0.24246293 0.77055556 4283455811
0.3615402 0.24341652 0.77000004 4285298257
0.36813411 0.24257438 0.77033335 4283457082
0.37194052 0.24241178 0.77057141 4282537014
0.37656465 0.2405055 0.77000004 4287668375
0.38199264 0.24243346 0.77040005 4282865221
0.38522774 0.24067821 0.77000004 4285877573
0.35231888 0.24778868 0.77316672 4285674546
0.35705423 0.24812806 0.77175003 4286065973
0.36216018 0.24803208 0.77116662 4285412663
0.36807305 0.24777336 0.77000004 4286065969
0.37253228 0.248022 0.7712 4286790718
0.37721437 0.24879766 0.77100003 4286138685
0.38191405 0.24709004 0.77033335 4286203714
0.35284668 0.25298131 0.77320004 4287441465
0.35749397 0.25253436 0.77333337 4290213250
0.36302006 0.2528275 0.77283335 4291069591
0.36779207 0.25249276 0.77150005 4288366679
0.37199754 0.25249571 0.77125001 4287508540
0.37729442 0.2525256 0.77099997 4287907660
0.32629913 0.25941923 0.77200001 4285821544
0.35368019 0.25607139 0.77350008 4287966782
0.35799426 0.25614634 0.77350008 4287441979
0.36274329 0.25692508 0.773 4287573569
0.36768851 0.25756645 0.77183336 4287771200
0.37158716 0.25746241 0.7701667 4287837505
0.3771342 0.25758445 0.77100003 4287576898
0.35813218 0.26361498 0.77350003 4284300347
0.36114335 0.26350731 0.77300006 4283839795
0.36734548 0.26237583 0.77242857 4286004800
0.37294501 0.26301211 0.77140003 4285354315
0.32683891 0.26825041 0.77300006 4281421883
0.35726863 0.26612979 0.77149999 4289905590
0.36205712 0.26656157 0.77250004 4289314988
0.36727625 0.26683936 0.77300006 4285169003
0.37239382 0.2678892 0.77366668 4282342213
0.37643629 0.26811743 0.773 4281487930
0.32864955 0.27430996 0.77200001 4281488702
0.37640586 0.27336061 0.77266675 4281096507
0.37406507 0.27951142 0.77200001 4280900157
0.37521616 0.27670085 0.77000004 4281557834
0.33609921 0.28384179 0.77150005 4280571454
0.37197748 0.28303644 0.77200001 4280966206
0.35688257 0.28767082 0.77200001 4283862131
0.36160842 0.28724262 0.77050006 4286231192
0.36687216 0.28702188 0.77250004 4280966721
0.37196022 -0.019571682 0.77700001 4279571976
0.3166163 0.058251612 0.77600002 4283776056
0.3334592 0.05844016 0.77850008 4286807419
0.33684596 0.058478761 0.77900004 4287597449
0.34442681 0.056227576 0.77700001 4287731861
0.34849313 0.05637452 0.77900004 4286876811
0.35334551 0.058415119 0.77800006 4287465865
0.35792404 0.061357491 0.77780002 4284618007
0.36306834 0.062554628 0.77683336 4285341215
0.36721262 0.063081697 0.77585715 4285276702
0.37224206 0.063202761 0.77600002 4285540643
0.37675947 0.064251788 0.778 4285673766
0.36326411 0.067982771 0.77875006 4285407262
0.36760485 0.067810871 0.77666664 4285407518
0.37289223 0.068230025 0.77733332 4284819231
0.3770979 0.067716449 0.77780002 4285411622
0.36224559 0.072212234 0.77883339 4284489754
0.36765105 0.072237082 0.77900004 4283374867
0.37217686 0.071962804 0.77820003 4281803543
0.37740001 0.072415009 0.77840006 4282789154
0.35974461 0.079514176 0.77800006 4282982672
0.36267406 0.077149458 0.77842861 4281604875
0.3678709 0.077658825 0.77775002 4282065170
0.37312946 0.077130176 0.778 4281477919
0.37803918 0.077389337 0.77742863 4284308561
0.38009626 0.079360634 0.77600002 4285429097
0.36210945 0.082736276 0.77850008 4283310609
0.36763635 0.082555816 0.7766667 4283836439
0.37308547 0.082322858 0.77766675 4283378204
0.37800646 0.083180316 0.77900004 4285950042
0.38059592 0.082626067 0.77700001 4285692526
0.31241003 0.085581884 0.77600002 4285363565
0.35809237 0.087005526 0.77900004 4284427034
0.36264592 0.087936021 0.77780002 4284098069
0.36749235 0.087786049 0.77633333 4284821276
0.37345698 0.087949902 0.77766675 4284690463
0.37944591 0.087060519 0.77900004 4284630583
0.38148829 0.087936163 0.77733344 4285426525
0.35818496 0.09245383 0.77785718 4282458384
0.36265847 0.092578545 0.77780002 4284624670
0.36734807 0.093277425 0.77825004 4285413673
0.37216353 0.093162306 0.77716666 4285282601
0.377583 0.092144586 0.77733332 4285420355
0.38187763 0.092636093 0.77780002 4285819996
0.3584882 0.09738341 0.77750003 4282066968
0.36251181 0.097330965 0.77700001 4284360471
0.36765754 0.097966768 0.77775007 4285742123
0.37214103 0.097049698 0.77620006 4285679412
0.37780464 0.097472802 0.77775007 4286211408
0.38220912 0.097520925 0.778 4287660142
0.35387453 0.1049538 0.77900004 4282788122
0.35840791 0.10306089 0.77828568 4281544217
0.36260405 0.10262523 0.77716666 4282267164
0.36770171 0.1023863 0.77724999 4283253796
0.37251011 0.10255033 0.77633339 4283913266
0.37705597 0.10254186 0.77616668 4286273597
0.38165984 0.1026481 0.7768333 4286603852
0.34962451 0.10705689 0.77900004 4284169518
0.35247815 0.10801698 0.77825004 4284821022
0.35737538 0.10790289 0.77733332 4282003223
0.36299318 0.10802923 0.7766 4281418014
0.36727688 0.1071903 0.77575004 4282996527
0.37277588 0.10773852 0.77833343 4284964409
0.37674046 0.10768671 0.77680004 4286339389
0.3813965 0.10784364 0.77625 4287659113
0.35389051 0.11129307 0.77900004 4284163860
0.35746345 0.1121458 0.77749997 4282989087
0.36254001 0.11167993 0.77560008 4281089048
0.366703 0.11231443 0.77600002 4281945128
0.37215784 0.11257691 0.77700001 4287134045
0.37713674 0.11204076 0.77625 4286472263
0.38223267 0.11232673 0.7766 4287857005
0.3496528 0.11867841 0.77900004 4286201383
0.3533774 0.11816045 0.77900004 4284492308
0.3577621 0.11751319 0.77811116 4285155119
0.36269823 0.11755748 0.77628571 4286277713
0.36742792 0.11617815 0.77600002 4284504898
0.3738344 0.11725938 0.77600002 4287792499
0.3772037 0.1173259 0.77633333 4287396197
0.38288438 0.11745437 0.77700001 4287660656
0.3496615 0.12184857 0.77900004 4285476890
0.35274637 0.12287516 0.77875006 4285942071
0.35757506 0.12272176 0.77766675 4286999647
0.36285901 0.12230263 0.7762 4287795079
0.36778721 0.12268303 0.77580005 4288057995
0.37291205 0.12256621 0.77625 4288124302
0.37751621 0.12269843 0.77560008 4288255375
0.38279152 0.12269403 0.77675003 4288321420
0.38505614 0.12169039 0.77700001 4288124038
0.35393494 0.12608951 0.77900004 4286741875
0.35738054 0.12756564 0.77662498 4287927696
0.36274123 0.12809648 0.77628571 4287794310
0.36761373 0.12781619 0.77628571 4288057223
0.37256366 0.12756288 0.77642858 4288386446
0.37765428 0.12747991 0.77550006 4288385931
0.38258961 0.12817813 0.77540004 4288386185
0.35396534 0.13454819 0.77900004 4288847771
0.35687146 0.13266215 0.77671438 4287926927
0.36271805 0.13277456 0.77580005 4286872180
0.37248707 0.13294213 0.77525008 4286343771
0.37785718 0.13335231 0.77750003 4287462508
0.38278282 0.13300222 0.77733344 4288582276
0.38512295 0.13225703 0.77700001 4286280809
0.35257041 0.13758391 0.77825004 4288320140
0.35740504 0.13741453 0.77716666 4288123275
0.36152554 0.13676183 0.7753334 4288452497
0.37306634 0.13688189 0.77566671 4288384899
0.37800464 0.13762596 0.77775002 4287526759
0.38205624 0.13756472 0.77725005 4288844161
0.35280693 0.14196858 0.77716666 4288253064
0.35727507 0.14278889 0.77625 4287528829
0.36294475 0.14395332 0.77525008 4287923839
0.36756948 0.14464383 0.77600002 4288120955
0.37203172 0.14285342 0.77566671 4288251511
0.37668824 0.14030129 0.77500004 4287790959
0.38277236 0.14271235 0.77644444 4288383612
0.34853408 0.14715581 0.77866673 4288645505
0.35237679 0.14750805 0.77820003 4288056204
0.35714802 0.14784549 0.77650005 4288450705
0.36289096 0.14799239 0.77600008 4287856244
0.36781988 0.14783345 0.77800006 4288118125
0.372026 0.14790015 0.77633333 4286867541
0.37722561 0.14787459 0.77600002 4287854694
0.382512 0.14788121 0.77583337 4288383871
0.31324759 0.15326691 0.77800006 4285101185
0.34931928 0.15126109 0.77800006 4287329906
0.35286245 0.1524794 0.77875006 4288450451
0.3577078 0.15261707 0.77700001 4287068275
0.36224201 0.1521882 0.77516675 4285944387
0.36729786 0.15154868 0.7753334 4285220917
0.37248719 0.15187123 0.77500004 4287793016
0.37737885 0.15214631 0.77625 4288184692
0.3821961 0.15192538 0.77600002 4288516745
0.34767351 0.15991199 0.77900004 4288777619
0.35277614 0.15772121 0.77850008 4288318093
0.35676143 0.15753025 0.77612501 4287591277
0.36207947 0.15822913 0.77550006 4288513912
0.36647567 0.15850891 0.77500004 4287064929
0.37275112 0.15513568 0.77550006 4287469971
0.37746626 0.15670551 0.77525002 4287928215
0.38167915 0.15745087 0.77616668 4288191646
0.34983075 0.16415757 0.77900004 4288649118
0.35246477 0.16285473 0.77775007 4287529864
0.35738516 0.16269356 0.7768333 4287259746
0.36198226 0.1621982 0.77600002 4286599244
0.36637428 0.16142291 0.77550006 4289370260
0.37793866 0.16352279 0.77500004 4288060579
0.38229251 0.16292229 0.77600002 4287403423
0.34962371 0.16722798 0.77850008 4288388261
0.35271096 0.16720843 0.77666664 4288323238
0.35771114 0.16783254 0.7761429 4288060324
0.37369251 0.16876674 0.77500004 4287469731
0.37725857 0.16684404 0.77575004 4287600800
0.3822403 0.16722383 0.77566671 4287666853
0.31419298 0.17370406 0.77500004 4286219927
0.31580886 0.17248639 0.77900004 4286154648
0.34912315 0.17304726 0.77850008 4288717741
0.35244071 0.17259319 0.77875006 4288586412
0.35744885 0.17255835 0.77683336 4288257705
0.37372088 0.17193593 0.77500004 4287470247
0.37734771 0.17214979 0.77583337 4287141541
0.38041323 0.17210639 0.77550006 4286813090
0.34968761 0.17781538 0.77850008 4288849327
0.3524681 0.17814936 0.77833337 4288783277
0.35807979 0.17736964 0.77720004 4288651948
0.36178687 0.17754258 0.7753334 4288191655
0.36520261 0.17819943 0.77500004 4287731104
0.37590876 0.17618367 0.77500004 4287272870
0.38271657 0.178519 0.77566671 4286934398
0.34993321 0.18111058 0.77900004 4289307823
0.35281414 0.18201903 0.77825004 4287660433
0.35693896 0.18266292 0.77633339 4287525766
0.36256823 0.18293038 0.77500004 4286140257
0.36735237 0.18256132 0.77550006 4288050309
0.37084001 0.1825933 0.77550006 4288907160
0.37813729 0.18361044 0.77500004 4287330696
0.38237032 0.18255103 0.77633333 4286866549
0.38506493 0.18073918 0.77600002 4286343027
0.35362002 0.18797192 0.77875006 4286335066
0.35733709 0.18766141 0.77700001 4287520371
0.36265951 0.18798405 0.77625 4287719030
0.36751404 0.18777193 0.77516675 4288573311
0.37842888 0.18796682 0.77550006 4289630623
0.38281542 0.18778089 0.77675003 4287920775
0.31698966 0.19408049 0.77650005 4287338661
0.35430878 0.19281404 0.77900004 4286333014
0.3574535 0.19223237 0.77650005 4288837515
0.36246592 0.19209595 0.77575004 4287129464
0.3680039 0.19222894 0.77520001 4286537072
0.3733739 0.19246016 0.7753334 4288581021
0.37776577 0.19237991 0.77625 4286475901
0.38245574 0.19261786 0.77700007 4288519848
0.35254785 0.19825327 0.77816671 4289308593
0.35717046 0.19734465 0.77577782 4287728023
0.36271313 0.1974958 0.77616668 4288058018
0.36686453 0.19734867 0.77540004 4287270302
0.37331516 0.19699603 0.77540004 4287732394
0.37770799 0.19762088 0.77600002 4287272357
0.38227773 0.19780374 0.77650005 4287667883
0.35298806 0.20323314 0.77825004 4288652205
0.3574028 0.20274071 0.77616668 4288058271
0.36269119 0.20275173 0.77600002 4286344828
0.36699206 0.20279858 0.77600008 4287663517
0.37245783 0.20290764 0.77616668 4287337637
0.37622422 0.20371623 0.77500004 4287402658
0.38173866 0.20262854 0.77600002 4287798957
0.31645653 0.20951585 0.77500004 4287599517
0.3530288 0.20748129 0.77825004 4288186775
0.35783044 0.20720232 0.77699995 4288321185
0.3628673 0.20757863 0.77580005 4288847530
0.3677704 0.20738691 0.77525002 4287529617
0.37276524 0.20684934 0.77580005 4287597466
0.3762525 0.2058382 0.77500004 4284902008
0.31687707 0.2118984 0.77600002 4287599517
0.34804863 0.2129472 0.77900004 4283971659
0.35317445 0.21073733 0.77850008 4287653753
0.35720676 0.21218744 0.77740002 4287328638
0.36080447 0.21236603 0.77633333 4286209387
0.3698805 0.21318164 0.77500004 4289042339
0.37371793 0.21356952 0.77625 4286016378
0.37637174 0.21433282 0.77500004 4287599011
0.38281736 0.21124004 0.77500004 4287141543
0.3486864 0.2174695 0.77840006 4287396743
0.35217273 0.21763948 0.77850002 4286608511
0.35760501 0.2173398 0.7778334 4286871426
0.36123195 0.21803527 0.77633333 4287007381
0.36993867 0.21742857 0.77500004 4287204505
0.37365779 0.21775407 0.77600002 4286414992
0.37641919 0.21752129 0.77500004 4287337894
0.38185084 0.21866812 0.77500004 4286483612
0.38510612 0.21872072 0.77500004 4286746778
0.31776148 0.22303961 0.77800006 4285756791
0.34834862 0.22290802 0.7778334 4286219140
0.35245228 0.22257283 0.77900004 4286810510
0.3577486 0.22205549 0.77566671 4286416529
0.3624551 0.22157466 0.77500004 4286088594
0.3678368 0.22129364 0.77500004 4285825938
0.37214333 0.22064668 0.77500004 4286878112
0.37866774 0.22287321 0.77500004 4286154901
0.38190329 0.22186135 0.77500004 4285891729
0.38540918 0.22205824 0.77550006 4286418327
0.31806424 0.22747703 0.77866673 4284835942
0.34367126 0.22659308 0.77850008 4283391061
0.34715658 0.22760285 0.77724999 4281285938
0.35216001 0.22580941 0.7766667 4284969836
0.35676092 0.2272362 0.77650005 4283983963
0.37875673 0.22819784 0.77500004 4280101419
0.381136 0.22625014 0.77550006 4283061852
0.38521677 0.22511241 0.77500004 4286221201
0.3174237 0.23228462 0.77700007 4285757045
0.34396312 0.23313232 0.77900004 4283588185
0.34737349 0.232584 0.77700001 4283719772
0.35148278 0.231694 0.77500004 4283588185
0.35612935 0.23104703 0.77500004 4282666825
0.31726325 0.23743798 0.77649999 4286151807
0.33969811 0.23628157 0.77900004 4287799448
0.34329185 0.2370339 0.77900004 4282600008
0.34691015 0.23684035 0.77583337 4284837230
0.35296199 0.23525357 0.77500004 4287863452
0.35726458 0.23531328 0.77500004 4287797659
0.34277678 0.24241129 0.778 4282591272
0.34688282 0.24215904 0.77700001 4281020201
0.32103127 0.24973002 0.77500004 4287775308
0.34392959 0.24791655 0.77850008 4289817205
0.34749588 0.24744458 0.77683336 4287584607
0.34880686 0.25245643 0.77800006 4288630107
0.35077167 0.25114 0.77600002 4288231755
0.35973054 0.2545262 0.77500004 4292912308
0.32488081 0.25530949 0.77900004 4288172887
0.34922707 0.25638461 0.778 4287703867
0.35194865 0.25869852 0.77675003 4287900475
0.35795233 0.25898299 0.77566671 4287770430
0.35345995 0.26334664 0.77833337 4286982707
0.35667825 0.26223439 0.77750009 4287507769
0.3626838 0.26160854 0.77525008 4287115323
0.32827342 0.2662639 0.77649999 4280962103
0.3542482 0.26693755 0.77833337 4285692014
0.35585061 0.26637545 0.77550006 4286284407
0.36431408 0.26744705 0.77500004 4281418032
0.36653313 0.2696372 0.77500004 4280303655
0.33159596 0.27465174 0.77900004 4281553983
0.35927796 0.27265185 0.77800006 4280304683
0.36271867 0.2719669 0.7768333 4280107560
0.36766857 0.27365077 0.77725005 4280174891
0.37317464 0.2723588 0.77625 4280437549
0.37578711 0.27233472 0.77600002 4280700978
0.3598069 0.27623558 0.77900004 4280044078
0.36277422 0.27721691 0.77749997 4280241202
0.36661533 0.27797401 0.77633333 4280702265
0.37229893 0.2773459 0.77828568 4280241711
0.37543583 0.27736491 0.77500004 4280833849
0.33300278 0.28040576 0.77700001 4281490245
0.33519721 0.28258741 0.77700001 4281754445
0.3629483 0.28237382 0.77683336 4283925871
0.36818287 0.28267968 0.77633333 4280702779
0.37298468 0.28213763 0.77649999 4280571960
0.33999482 0.28517953 0.77800006 4281229896
0.34176344 0.28700396 0.77700001 4280637759
0.35220599 0.28901199 0.77600002 4285572229
0.36131346 0.28688669 0.77700001 4280440894
0.36629277 0.28610927 0.77600002 4280571964
0.39900935 -0.009129338 0.78400004 4280032778
0.32265222 0.058776677 0.78300005 4283645241
0.32689428 0.05877658 0.78300005 4284698699
0.330715 0.058701932 0.78200006 4286740339
0.33939692 0.058554739 0.78000003 4287860621
0.3427968 0.058593918 0.78050005 4287860107
0.35303116 0.058713473 0.78200006 4287466377
0.31735241 0.063019991 0.78300005 4285606438
0.33794457 0.060977958 0.78400004 4284617492
0.34241319 0.061662298 0.78366667 4284617749
0.34611201 0.062398549 0.7840001 4284881177
0.35419473 0.061619591 0.78299999 4284617749
0.35699475 0.063608848 0.78133339 4285275164
0.36064568 0.064915471 0.78000003 4285275418
0.34753752 0.067356944 0.78400004 4285342239
0.35358083 0.068142153 0.78320009 4284882969
0.35697657 0.067132935 0.78128576 4285013787
0.36065018 0.06808731 0.78000003 4285210396
0.31694496 0.073532134 0.78200006 4281942069
0.35276741 0.072651461 0.78375006 4282851090
0.35708037 0.072449617 0.78150004 4282588691
0.31714702 0.076759651 0.78250003 4284771169
0.3537282 0.076876044 0.78350008 4283966484
0.35741276 0.077493779 0.78162509 4283507475
0.36066556 0.077603631 0.78000003 4282917653
0.34811702 0.082903899 0.78366679 4284689435
0.3535099 0.082134046 0.78300005 4284688665
0.35702005 0.082640409 0.78200006 4284229142
0.37801766 0.082986012 0.78050005 4282329629
0.31442261 0.08824911 0.78100002 4285823088
0.34329009 0.087538175 0.78400004 4283704082
0.34604794 0.087430224 0.78300005 4284755226
0.35351634 0.086379416 0.78300005 4285148188
0.35581082 0.087222941 0.78100002 4284754714
0.36174828 0.086066119 0.78000003 4283966741
0.37851483 0.087332472 0.78150004 4283508761
0.3153615 0.092756152 0.78333336 4285757032
0.34765622 0.093267262 0.78299999 4282458385
0.35578865 0.092141688 0.78140008 4283442454
0.31522694 0.09696009 0.78300005 4282137379
0.34720352 0.098065682 0.78316671 4280097551
0.35476863 0.098868713 0.78100002 4280294671
0.35618615 0.097458892 0.78100008 4280032013
0.36925146 0.096664406 0.78000003 4286663741
0.34331059 0.10347672 0.78400004 4280688923
0.34721109 0.10231141 0.78316665 4280689177
0.35454857 0.10197987 0.78050005 4280097549
0.35668123 0.10198482 0.78050005 4280097034
0.34250116 0.10729127 0.78275001 4282392855
0.3472493 0.10774618 0.78185719 4282917908
0.35007805 0.10930977 0.78000003 4285545515
0.37357491 0.10832323 0.78000003 4285816637
0.3420397 0.11296801 0.78350008 4286198559
0.34708276 0.11288203 0.78283334 4285673499
0.35197076 0.11275727 0.78039998 4285478435
0.34215701 0.11725474 0.78375006 4287251502
0.34672263 0.11700381 0.78200006 4287318065
0.35151592 0.11636588 0.78000003 4285806626
0.34222737 0.12208845 0.78340006 4285479199
0.34688318 0.1223588 0.78233337 4285612069
0.35011646 0.12412134 0.78000003 4285282596
0.34235433 0.12816952 0.78333336 4283389225
0.34689805 0.1276647 0.78233337 4285092142
0.35210314 0.1276115 0.78059995 4286345573
0.34326884 0.13176538 0.78280002 4285748010
0.34744203 0.13242447 0.78160012 4286934352
0.3525162 0.13252069 0.78112501 4288124303
0.34336832 0.13675024 0.78275001 4287518010
0.34746662 0.13791783 0.78285712 4287986021
0.35016155 0.13788158 0.78000003 4287858814
0.31484205 0.14133476 0.78200006 4284772998
0.31524691 0.14363794 0.78300005 4284575365
0.34268498 0.14245915 0.7840001 4285805605
0.34701744 0.14255626 0.78250003 4288249715
0.35017747 0.14211705 0.78000003 4288187010
0.31458092 0.14756753 0.78133339 4284772997
0.34425554 0.14717971 0.78266668 4284625958
0.34572694 0.14753532 0.78075004 4284757289
0.31404972 0.151546 0.78000003 4285101701
0.34358716 0.15250877 0.78240001 4286985766
0.34724063 0.15279411 0.78050005 4286594599
0.35022694 0.15376902 0.78000003 4288843665
0.34397471 0.15746857 0.78275001 4287183155
0.34759188 0.15718445 0.78125006 4288307293
0.35046655 0.15704942 0.78050005 4288514964
0.34326953 0.16235197 0.78214294 4286808463
0.34711629 0.16277969 0.78059995 4288515992
0.35026315 0.16118783 0.78000003 4288713626
0.31701425 0.16890658 0.78200006 4286023064
0.34231463 0.16777396 0.78375006 4286876572
0.34690532 0.16795637 0.78200006 4288124062
0.31701955 0.17102852 0.78200006 4286220441
0.34352005 0.17262638 0.78400004 4287860891
0.34677961 0.17213555 0.7816667 4288518819
0.34310108 0.1773212 0.78237504 4288518306
0.34737483 0.17772791 0.78100002 4288914604
0.35463503 0.17606393 0.78000003 4288717741
0.35678834 0.17714053 0.78000003 4288651948
0.3422744 0.1826141 0.78266674 4288779424
0.34733024 0.18258692 0.78180009 4288254621
0.3503969 0.18346652 0.78000003 4289964726
0.34316123 0.18678117 0.78299999 4286536297
0.34744313 0.1876552 0.78133339 4286991710
0.35128251 0.18729608 0.78000003 4288900736
0.31901291 0.19108273 0.78150004 4287732133
0.34417123 0.19365233 0.78275001 4286076005
0.34734097 0.19238578 0.78183341 4287784053
0.35187888 0.19322151 0.78075004 4290351780
0.34366763 0.19715703 0.78400004 4282329403
0.34724244 0.19783531 0.78233337 4286537326
0.35156709 0.19622464 0.78000003 4284168776
0.34764707 0.20231599 0.78316671 4289045424
0.35069704 0.20268333 0.78033334 4288849070
0.34737119 0.20746261 0.78244448 4288454829
0.35059559 0.20791742 0.78000003 4289177266
0.34696507 0.2125717 0.78240001 4287466139
0.3522571 0.21272537 0.78000003 4287391866
0.31933993 0.21566577 0.78200006 4287599771
0.32016984 0.2183522 0.78400004 4287796635
0.34275299 0.21745455 0.78400004 4286942361
0.34667245 0.21774802 0.78260005 4286677646
0.35390019 0.21540576 0.78000003 4286143850
0.35545647 0.21782847 0.78100002 4288780194
0.31938073 0.22205546 0.78200006 4285756277
0.32018349 0.22048756 0.78400004 4288125084
0.34257892 0.22266681 0.78242862 4286153610
0.34587082 0.22156222 0.78200006 4286153610
0.34176204 0.22743343 0.7815001 4284114273
0.33879074 0.23195034 0.78366679 4282471486
0.3421829 0.23241042 0.78128576 4282536776
0.33784199 0.23720641 0.78216672 4281023274
0.34167302 0.23903851 0.78100002 4284969065
0.33804604 0.242663 0.78250003 4286924874
0.34120992 0.24249643 0.78066665 4283771177
0.33981451 0.24636015 0.78400004 4287113014
0.34188643 0.24767724 0.78125 4287378497
0.3261075 0.25415039 0.78200006 4287971659
0.33986777 0.25065774 0.78400004 4286064438
0.34281987 0.25260913 0.78325003 4287441725
0.34595364 0.25285313 0.78049999 4287640387
0.32873306 0.25879213 0.78300005 4287185477
0.33998221 0.25926301 0.78400004 4287247944
0.34315181 0.25826541 0.78299999 4288298833
0.34623843 0.25730631 0.78100002 4287769147
0.33210742 0.26290846 0.78233337 4284503627
0.33957887 0.2610831 0.78300005 4291463316
0.34246191 0.2626133 0.78360003 4287386721
0.34748399 0.26179987 0.78220004 4287507256
0.35118571 0.26358238 0.78133339 4286851378
0.33317107 0.26744628 0.78300005 4280436530
0.3444224 0.26579234 0.78400004 4283649350
0.3487938 0.26694131 0.78400004 4285883484
0.35148475 0.26806122 0.78183341 4284111438
0.33241436 0.27320692 0.78100002 4281488702
0.34826952 0.27228707 0.78260005 4280765750
0.3516376 0.27243131 0.78200006 4280239405
0.35740319 0.27352393 0.78225005 4280041766
0.3606196 0.27154371 0.78100002 4279712032
0.33593112 0.2786085 0.78400004 4281160763
0.34898317 0.27775198 0.78400004 4280241206
0.35237658 0.27706596 0.78183341 4282017102
0.35756788 0.27696604 0.78125 4279911723
0.36033788 0.27983013 0.78000003 4280504378
0.33731592 0.2822465 0.78200006 4280767804
0.34170243 0.28448415 0.78200006 4282611289
0.34908557 0.28316784 0.78400004 4280372531
0.35353643 0.28297326 0.78320009 4280307252
0.35735241 0.28216872 0.78157145 4281952335
0.36040932 0.28307325 0.78000003 4280372792
0.3734853 0.28012988 0.78000003 4280308017
0.34433949 0.28596973 0.78300005 4281294661
0.34724724 0.28739849 0.78260005 4282808155
0.35215467 0.28694156 0.78150004 4280046129
0.35745645 0.28751135 0.78050005 4280374325
0.3604826 0.28631896 0.78000003 4280439352
0.34797445 0.058933709 0.78500003 4287137667
0.35162625 0.059011124 0.78600001 4287335048
0.32110408 0.06120944 0.78700006 4285146147
0.33432266 0.061287463 0.78800005 4285143578
0.33709836 0.062710762 0.78575003 4285275165
0.34157461 0.063184164 0.78500003 4285340443
0.31978378 0.065640405 0.78900003 4284686364
0.33888802 0.067752101 0.78866673 4285538333
0.34254307 0.067630529 0.78722227 4285275675
0.34696382 0.067494497 0.78560007 4285275932
0.35129845 0.067466512 0.78525001 4285079323
0.31856653 0.071778901 0.78600001 4284903014
0.33881885 0.073078811 0.78850007 4284431156
0.34219673 0.07319174 0.78740007 4284626997
0.34671566 0.072639048 0.78600007 4283772456
0.3501226 0.072763473 0.78500003 4282457876
0.34345731 0.077628382 0.78766674 4281741864
0.34689683 0.076938577 0.78640002 4284108612
0.31876761 0.081414811 0.78650004 4284639584
0.33807221 0.082840025 0.78737503 4283769360
0.34294346 0.082202829 0.78671426 4282194699
0.34672329 0.081879094 0.78575003 4284229656
0.33861122 0.087445766 0.78800005 4284622613
0.34116951 0.088076912 0.7856667 4281866760
0.33776063 0.093375966 0.78850007 4283375634
0.34246469 0.092136987 0.787 4280555271
0.34609002 0.091967016 0.78550005 4282656279
0.31643462 0.099460982 0.78600001 4285822799
0.33802146 0.097235292 0.78860009 4280952091
0.34227806 0.097415052 0.78655559 4280426263
0.34587401 0.09509965 0.78500003 4279768070
0.31764239 0.10197819 0.78900003 4287395159
0.33905306 0.10319617 0.78733343 4280887073
0.34204236 0.102139 0.78600007 4281873968
0.31764266 0.10732217 0.78900003 4285151788
0.33871454 0.10730537 0.78720009 4282399026
0.3382073 0.11239657 0.78700006 4286330665
0.3176451 0.11907969 0.78900003 4283985020
0.33392772 0.11833048 0.78866673 4286988332
0.33807287 0.11768197 0.78666669 4287383091
0.33371532 0.1212312 0.78900003 4286133789
0.33854425 0.12158138 0.78775001 4286138415
0.34100905 0.12397988 0.78600001 4282986769
0.31724685 0.12853743 0.78800005 4285430657
0.3384994 0.12706678 0.78700006 4284439345
0.3416529 0.12701911 0.78500003 4282206494
0.31724879 0.1317406 0.78800005 4285957000
0.33899254 0.13254598 0.78625005 4286008870
0.34166801 0.13340707 0.78500003 4284311095
0.31685209 0.139036 0.78700006 4285364357
0.33856031 0.13739613 0.78700012 4287842097
0.34167922 0.13766648 0.78500003 4287910457
0.334822 0.14048749 0.78900003 4285745711
0.33783689 0.14235312 0.78742868 4287382317
0.34105879 0.14423706 0.78600001 4287773742
0.33913887 0.14691934 0.78900003 4287906866
0.34214103 0.14743951 0.78600001 4286262815
0.33804026 0.15326226 0.78640002 4286924346
0.34155956 0.15245885 0.78660005 4287118122
0.31942365 0.15951441 0.78800005 4285036167
0.33719498 0.15773085 0.78740007 4287203989
0.34099668 0.15805537 0.78575003 4286141529
0.31922722 0.16261917 0.78750002 4284708236
0.33768415 0.16277057 0.78800005 4286943908
0.34090933 0.16279709 0.78633338 4285892249
0.31822297 0.16635987 0.78500003 4285759893
0.3387771 0.16705504 0.78800005 4286483873
0.34049863 0.16765627 0.78575003 4286483615
0.33922458 0.17155343 0.78900003 4287338407
0.34149352 0.17321667 0.78675002 4287796898
0.32202467 0.17898998 0.78900003 4286417820
0.33911097 0.17789294 0.787 4288256420
0.34010863 0.17625031 0.78600001 4288125348
0.32183099 0.18208849 0.78850007 4286548892
0.33941862 0.1819431 0.78600001 4288648866
0.34014115 0.18266077 0.78600001 4288583073
0.32144547 0.18827093 0.78750002 4287534499
0.33499429 0.18976063 0.78900003 4291139497
0.33801088 0.18782341 0.78799999 4287721343
0.34103516 0.18844593 0.78633338 4286468963
0.342439 0.19237204 0.78720003 4287783540
0.33936489 0.19837123 0.78900003 4289897654
0.34203827 0.1972632 0.78620005 4287590532
0.32304519 0.20287681 0.78600001 4288849841
0.33939299 0.20266758 0.78900003 4287797673
0.34236467 0.20232049 0.78650004 4287664290
0.32286227 0.20702335 0.78550005 4287928997
0.34288916 0.2075451 0.787 4287864237
0.32390782 0.21089795 0.78800005 4287600289
0.33816421 0.2121973 0.78850007 4287272355
0.3424468 0.21277009 0.7865001 4287469221
0.34510002 0.21292736 0.78700006 4287600037
0.33936143 0.21762772 0.78866673 4286877340
0.34038347 0.21798089 0.78600001 4286811289
0.3393485 0.22333416 0.78600001 4286219405
0.34041157 0.2211982 0.78600001 4286482322
0.33819571 0.22789992 0.78700006 4286153351
0.34032723 0.22753878 0.7856667 4286153352
0.32448137 0.23481551 0.78900003 4284046939
0.33489341 0.23461245 0.78800005 4280562722
0.33661568 0.23261392 0.78700006 4281878583
0.3240968 0.23774266 0.78800005 4285296751
0.33327594 0.23810129 0.78820002 4280299803
0.33602476 0.23710892 0.78550005 4280102939
0.32372284 0.24174044 0.78700006 4287204750
0.33410016 0.24168324 0.78766674 4285882442
0.33606979 0.24140689 0.78550005 4284827193
0.32420474 0.24958518 0.78800005 4286399822
0.33330145 0.2499921 0.78900003 4286785591
0.33655471 0.24755754 0.78712505 4287510342
0.34070775 0.24914251 0.78600001 4286916149
0.32757092 0.25228277 0.78733331 4287117122
0.33333808 0.25323302 0.78900003 4287376955
0.33704746 0.25280353 0.78750008 4290743449
0.34032893 0.25313023 0.78500003 4285604403
0.32954678 0.25730115 0.78500003 4287314497
0.33237877 0.25697038 0.78833342 4287706432
0.33738706 0.25733903 0.78816676 4288364112
0.34167448 0.25653905 0.78550005 4289483366
0.33258373 0.2601409 0.78700006 4287379774
0.33754784 0.26233926 0.78775007 4286133048
0.33775559 0.26741266 0.787 4284446052
0.3425518 0.26726177 0.78633338 4285364073
0.34648371 0.26770881 0.7853334 4285494888
0.33406872 0.27136678 0.78500003 4281423164
0.33793867 0.27169639 0.78900003 4279976743
0.34670767 0.27261317 0.78650004 4279911211
0.3572135 0.27300259 0.78550005 4280107048
0.33737901 0.27659759 0.78750002 4280568625
0.34671402 0.27802962 0.78680009 4280767547
0.3423343 0.2830078 0.78760004 4281886284
0.34714642 0.28239343 0.78560007 4281820235
0.35167754 0.28140068 0.78500003 4280503862
0.3495734 0.28570029 0.78500003 4281293631
0.37575588 -0.02430206 0.79400003 4279703046
0.32355177 0.06382443 0.79300004 4285803304
0.32770982 0.061649751 0.79266673 4285144347
0.33311331 0.062731974 0.79275006 4285670175
0.33559594 0.063663885 0.79100001 4285472283
0.32099923 0.068035617 0.79200006 4287927950
0.33741304 0.067027181 0.79275 4285604125
0.32227588 0.0723764 0.79250002 4284375641
0.33407354 0.073023975 0.79375005 4284751896
0.33688381 0.072282501 0.79150003 4284752668
0.3239581 0.076811254 0.79400003 4284638298
0.33386028 0.078213163 0.79366666 4285018399
0.33774257 0.077906862 0.79200006 4282722070
0.3411828 0.077207021 0.79066664 4282991672
0.32018578 0.084985398 0.79000002 4283982166
0.3347201 0.082190618 0.79400003 4285873962
0.3360264 0.08198449 0.79200006 4285412384
0.32140145 0.087456472 0.79300004 4285363565
0.33430079 0.087458812 0.79300004 4283967764
0.3361415 0.087774813 0.79100001 4285279771
0.33409268 0.092771478 0.79250002 4286790184
0.33711115 0.092034198 0.79075003 4285739811
0.3216038 0.097184747 0.79350007 4280821017
0.33330664 0.097404443 0.79233336 4284365357
0.33583066 0.098398805 0.79025 4281738265
0.31804502 0.10424771 0.79000002 4285743399
0.32180661 0.10047338 0.79400003 4283585086
0.33302081 0.10136225 0.79250002 4281281058
0.33700925 0.10341578 0.79175007 4280491287
0.33675995 0.10738327 0.79200006 4284101935
0.31844842 0.11188173 0.79100001 4285031501
0.33431798 0.11217186 0.79300004 4286200621
0.33534309 0.11286712 0.79033333 4286462251
0.31885195 0.11631356 0.79200006 4284116080
0.33304319 0.11734775 0.79166669 4286791210
0.31804889 0.1224415 0.79000002 4283522417
0.33233318 0.12306904 0.79166669 4286134302
0.33650249 0.1236078 0.79050004 4284824864
0.3180503 0.12565251 0.79000002 4283654514
0.33294243 0.12709729 0.79225004 4286400810
0.33608055 0.12786691 0.79033333 4284635184
0.31805548 0.13421592 0.79000002 4286286227
0.33369899 0.13201432 0.79275 4286926643
0.33668485 0.13276002 0.79140002 4286792999
0.31805712 0.13635698 0.79000002 4286811281
0.33335313 0.13821058 0.79233336 4287127887
0.33523971 0.13745165 0.79000002 4287715906
0.32182986 0.14350592 0.79400003 4284904588
0.33229798 0.14233884 0.79220003 4284039737
0.33525351 0.14387979 0.79000002 4286793009
0.32143283 0.14977472 0.79300004 4284839561
0.33265218 0.14680514 0.79233336 4285939767
0.33724254 0.14849763 0.7906 4287973175
0.34173051 0.14925565 0.79000002 4286460449
0.3214376 0.15299991 0.79300004 4284840328
0.3336648 0.15266581 0.79300004 4287133042
0.33599198 0.15209751 0.79000002 4286922553
0.3208366 0.15700105 0.79150003 4285364615
0.33460891 0.15742937 0.79350007 4287600028
0.33549923 0.15684028 0.79050004 4287403423
0.33483213 0.16183746 0.79400003 4287337890
0.33586952 0.16237551 0.79133338 4287074979
0.32403004 0.16719508 0.79400003 4285365652
0.33484912 0.16722564 0.79399997 4286615198
0.33682474 0.16767883 0.79100001 4286549408
0.32404369 0.17258132 0.79400003 4286023322
0.33400607 0.17289901 0.79366666 4287404456
0.33740652 0.17257823 0.79079998 4287403943
0.32364756 0.17666847 0.79300004 4286154649
0.33343011 0.17725894 0.79260004 4287601320
0.33721876 0.17753489 0.7918334 4287995306
0.33491063 0.18339917 0.79400003 4287601321
0.33787781 0.18312375 0.79180002 4288322728
0.32286236 0.18588708 0.79100001 4287206563
0.33364367 0.1870376 0.79266667 4287653499
0.33612135 0.18642497 0.79000002 4289896110
0.3258673 0.19282639 0.79300004 4287995307
0.3343181 0.19167101 0.79250002 4284623679
0.33788243 0.1933993 0.79066664 4289100169
0.32568538 0.19809064 0.79250002 4287338661
0.33496737 0.1952703 0.79400003 4284427843
0.33795506 0.1977673 0.79180008 4286931057
0.32467315 0.20068808 0.79000002 4288586669
0.33763134 0.20246749 0.79250002 4288517798
0.32810184 0.20685361 0.79300004 4288521392
0.33421227 0.20986535 0.79200006 4287732905
0.33789584 0.20777351 0.791125 4287732138
0.32474247 0.21358348 0.79000002 4287533724
0.32833335 0.21130341 0.79350007 4287666597
0.33464858 0.21229002 0.79300004 4287732389
0.3370176 0.21317756 0.79140007 4287469476
0.3257899 0.2174966 0.79250002 4287402137
0.33720374 0.21723554 0.79125005 4287271325
0.32589349 0.22293846 0.79266673 4287270289
0.33458653 0.22300129 0.79266667 4286941842
0.33748436 0.2224824 0.79071426 4286679442
0.32524598 0.22785988 0.79100001 4284178270
0.33359018 0.22760147 0.79366666 4286613641
0.3363103 0.2280906 0.79149997 4286350727
0.32641837 0.23283406 0.792 4285231468
0.3329823 0.23297508 0.79280007 4282535232
0.33570334 0.23089251 0.79000002 4286417025
0.32835054 0.23835592 0.79175001 4284705120
0.33130667 0.23626658 0.79079998 4280232479
0.32873127 0.24307525 0.79124999 4285685087
0.33233824 0.24319263 0.79033333 4286135099
0.32668725 0.24807771 0.79233336 4288247679
0.33214042 0.24751259 0.79150003 4287711574
0.32802814 0.25087371 0.79200006 4286458681
0.33143961 0.25221846 0.79100001 4287641669
0.34161645 0.26991659 0.79000002 4282800970
0.33882794 0.27456123 0.79100001 4280371501
0.34332141 0.27256635 0.79133338 4279976231
0.34540707 0.2746641 0.79100001 4280108589
0.34279943 0.27731314 0.79250002 4279978029
0.34546137 0.27793396 0.79100001 4281754698
0.34200665 0.28097248 0.79050004 4280701494
0.34551734 0.28120604 0.79100001 4285110141
0.32842088 0.064146027 0.79700005 4285473053
0.33124325 0.064065464 0.79600006 4285406489
0.32579529 0.067512646 0.79850006 4286273619
0.33315572 0.06746947 0.79799998 4285604382
0.33576983 0.067342415 0.79650009 4285669918
0.32436654 0.072600454 0.79500002 4285165926
0.32667127 0.071793377 0.79800004 4286676854
0.33234018 0.072837882 0.79760003 4284948505
0.32436591 0.079061769 0.79500002 4285428069
0.32869479 0.077165417 0.79766673 4284038707
0.33168542 0.07765846 0.79533339 4284624157
0.32436574 0.081215546 0.79500002 4283585351
0.32793722 0.08275684 0.79740012 4285288001
0.33201101 0.082318708 0.79525006 4284296730
0.32221189 0.089830816 0.79500002 4285692016
0.32730487 0.086639188 0.79866672 4284632898
0.33208767 0.087311938 0.79728574 4282851087
0.32281971 0.093236417 0.79650009 4288585620
0.32791659 0.093243137 0.79840004 4286276953
0.33202216 0.09221521 0.79700011 4285870370
0.32761762 0.097696364 0.79766673 4281214749
0.33169124 0.097052753 0.79533339 4285152560
0.32261741 0.10288306 0.79600006 4286806101
0.32734314 0.10193356 0.79699999 4281544485
0.33104366 0.10174404 0.79550004 4281939503
0.33515447 0.10491369 0.79500002 4281478182
0.32383373 0.10651793 0.79900002 4286465075
0.32883769 0.10638692 0.79800004 4281412127
0.33228827 0.10764416 0.79700005 4282989618
0.33515716 0.10814549 0.79500002 4285018411
0.33174148 0.11275782 0.79716665 4285018914
0.32363397 0.11726816 0.79850006 4285233517
0.33286318 0.11709052 0.79725003 4286662964
0.32356882 0.12265425 0.79833335 4284899694
0.3299326 0.12368707 0.79800004 4285607959
0.33098945 0.12219711 0.79533339 4286594082
0.32343674 0.12800604 0.79800004 4284704613
0.3299368 0.12801284 0.79800004 4287116318
0.33085656 0.12753397 0.79500002 4286788379
0.32303447 0.13216683 0.79700005 4284442980
0.32790777 0.13130999 0.79833335 4285021994
0.33148438 0.13263378 0.79650009 4286855975
0.32344446 0.13773701 0.79800004 4287075482
0.32981062 0.13768871 0.79766673 4285755506
0.33223319 0.13700923 0.7962001 4286143573
0.32223275 0.14153163 0.79500002 4285101963
0.32756475 0.14236248 0.79812497 4285036682
0.33129257 0.14172153 0.79600006 4285036170
0.32244182 0.14701116 0.79550004 4284641930
0.32770887 0.14722657 0.79780006 4284575877
0.33088803 0.14801115 0.79500002 4286019202
0.32793763 0.15187137 0.79833335 4286746010
0.33209586 0.15247944 0.79580009 4287859081
0.32638827 0.15785426 0.7985 4286812061
0.33154586 0.15770355 0.79728574 4287665563
0.32483646 0.16329728 0.79600006 4285431698
0.32673529 0.16154528 0.79800004 4286746527
0.33195817 0.16253906 0.79750007 4287797926
0.32464227 0.16750966 0.79550004 4285430930
0.32959548 0.16783784 0.79700005 4286418079
0.33227861 0.16701859 0.79650003 4286878371
0.32838988 0.17237473 0.79800004 4286024094
0.33134753 0.17213322 0.79683334 4286681249
0.32806826 0.17790097 0.79850006 4287338924
0.33079442 0.17706877 0.79633337 4286943907
0.32726061 0.18177906 0.79650009 4286417822
0.33260885 0.18267123 0.79716665 4286878114
0.32762229 0.18738341 0.79733342 4286944165
0.33156991 0.18782899 0.79785717 4287072411
0.32968241 0.19272707 0.79700005 4288520367
0.33284292 0.19268228 0.79675007 4287792276
0.32949501 0.19693661 0.79650009 4288388782
0.33242035 0.19752488 0.7962001 4287854986
0.33561766 0.19888413 0.79550004 4287654267
0.32917657 0.20213754 0.79566669 4288192428
