# .PCD v0.7 - Point Cloud Data file format
VERSION 0.7
FIELDS x y z rgba
SIZE 4 4 4 4
TYPE F F F U
COUNT 1 1 1 1
WIDTH 1090
HEIGHT 1
VIEWPOINT 0 0 0 1 0 0 0
POINTS 1090
DATA ascii
0.36784199 0.25829196 0.76000005 4283258953
0.37183359 0.25546899 0.76400006 4290952631
0.3665452 0.26402572 0.7615 4285696887
0.36717838 -0.02763667 0.76700002 4279571978
0.36813167 -0.021454779 0.76900005 4279702794
0.39884219 -0.01101664 0.76700002 4288390034
0.31419912 0.057425581 0.76500005 4282530100
0.31751096 0.057650596 0.76800001 4282655777
0.32167232 0.055569936 0.76800001 4288782239
0.32914442 0.055426702 0.76600003 4287929242
0.33204785 0.055391632 0.76550007 4287731096
0.33732021 0.055406239 0.76566672 4287600024
0.34118888 0.055360597 0.76500005 4288455333
0.35640922 0.057548583 0.7663334 4287730835
0.36673626 0.057539076 0.76600003 4285421656
0.37450606 0.059861865 0.76900005 4284887087
0.31005695 0.061571259 0.76500005 4285345322
0.37515438 0.061710719 0.76600003 4289505181
0.3087894 0.072122127 0.76700002 4286002740
0.37778342 0.073242649 0.76700002 4289242780
0.37779588 0.077407159 0.76700002 4287006334
0.37946606 0.091870442 0.76600003 4290166207
0.30750799 0.095226653 0.76900005 4288055936
0.37998328 0.097196698 0.76700002 4287995292
0.38072652 0.097388223 0.76850003 4288455587
0.38069281 0.10780334 0.76833338 4288127650
0.38080254 0.11304642 0.76850003 4287930790
0.38107347 0.11730137 0.76900005 4286942611
0.38039356 0.12750743 0.76750004 4287860881
0.38091701 0.1318564 0.76850003 4288257180
0.3808713 0.13705356 0.76833338 4288387227
0.38054752 0.1483995 0.76750004 4289243308
0.37984842 0.15332808 0.76600003 4289114036
0.38032606 0.15143804 0.76700002 4289243567
0.37937111 0.15521301 0.76500005 4289838273
0.30596378 0.16730069 0.76500005 4286811287
0.30637845 0.17375463 0.76600003 4286548115
0.37895745 0.17885195 0.76800001 4288718761
0.37750092 0.18024328 0.76500005 4289442227
0.37705031 0.19772534 0.76800007 4288981930
0.37759832 0.20219603 0.76900005 4290034364
0.38004136 0.22121821 0.76900005 4289903542
0.37911773 0.2332039 0.76666671 4283127884
0.37913901 0.23843838 0.7665 4284441173
0.31094447 0.24257715 0.76600003 4287330426
0.37832114 0.24447903 0.76900005 4286335300
0.31392825 0.24953222 0.76800001 4287459436
0.37482405 0.24982877 0.76600003 4285681484
0.37688929 0.24564061 0.76600003 4287585884
0.37346759 0.25345308 0.76750004 4288833642
0.37215063 0.25922194 0.76900005 4285611579
0.31577432 0.2618416 0.76700002 4281749818
0.36912003 0.26274717 0.76700002 4284576609
0.36625123 0.27261829 0.76500005 4284122732
0.36515215 0.27753961 0.76700002 4283133527
0.3597689 0.28451821 0.76900005 4281164103
0.36187971 0.28243276 0.76900005 4281492808
0.37052652 -0.023692459 0.77400005 4279702794
0.37004435 -0.017375495 0.77300006 4279703816
0.31457591 0.059965029 0.77100003 4285416000
0.32753113 0.05585989 0.77200007 4288190873
0.35331869 0.057892777 0.77100003 4288191642
0.31789535 0.060198061 0.77400005 4284238405
0.35892296 0.060221121 0.77400005 4285077532
0.36291838 0.060188062 0.77350008 4285341474
0.36715299 0.060194626 0.77350008 4285473831
0.3722094 0.060165018 0.77300006 4285211687
0.37703186 0.063236237 0.77200007 4286731086
0.37835023 0.067475855 0.77250004 4286007617
0.31080183 0.074683689 0.77200001 4285936947
0.31120399 0.076874554 0.77300006 4285937714
0.3791104 0.077055633 0.77400005 4286806131
0.37928352 0.080843441 0.77000004 4286018670
0.38027558 0.083148919 0.77200001 4284899936
0.38102543 0.086460784 0.77350008 4284111708
0.30790749 0.098479509 0.77000004 4287200365
0.3813163 0.098074764 0.77400005 4286745486
0.38149321 0.10280599 0.77000004 4287468948
0.3813957 0.11489674 0.77400005 4283194216
0.3686125 0.11693918 0.77400005 4286283914
0.37074089 0.1169484 0.77400005 4287007634
0.38159987 0.12268796 0.77000004 4287794573
0.36227903 0.1274223 0.77400005 4286869369
0.36654243 0.12954439 0.77400005 4286079853
0.38149464 0.13173243 0.77400005 4287926677
0.37938228 0.13592975 0.77400005 4288125084
0.3815228 0.13594395 0.77400005 4287993498
0.38250157 0.14208947 0.77300006 4287662478
0.36024553 0.1463394 0.77400005 4287070600
0.36878124 0.14849447 0.77400005 4287401363
0.38225716 0.14592674 0.77100003 4288914600
0.3687951 0.15060022 0.77400005 4287070087
0.38169605 0.15807509 0.77400005 4286089359
0.38075781 0.16292648 0.77200007 4286943125
0.30795905 0.16630526 0.77000004 4287140252
0.35826042 0.16948608 0.77400005 4286155161
0.38080856 0.16819236 0.77200001 4287798176
0.37987569 0.17300987 0.77000004 4287863195
0.38034716 0.17113017 0.77100003 4288718508
0.38040289 0.17639209 0.77100003 4287139472
0.37791044 0.18204229 0.77280009 4287271318
0.37822655 0.18787169 0.77066666 4287402644
0.31174895 0.19449171 0.77400005 4285957008
0.3779639 0.19297414 0.77000004 4287271312
0.31095648 0.19713888 0.77200007 4285891468
0.37783903 0.1992439 0.77400005 4286416007
0.37799281 0.20296545 0.77200007 4288060317
0.37890118 0.20813942 0.77149999 4289375405
0.37968501 0.21172281 0.77300006 4288587170
0.30604252 0.2165 0.77000004 4285824647
0.38106629 0.22391321 0.77100003 4287732371
0.38114181 0.22815351 0.77100009 4284640869
0.36922508 0.23277897 0.77300006 4284773220
0.37294614 0.23313341 0.77400005 4282075709
0.30909041 0.23811576 0.77200001 4286464580
0.35383573 0.23840617 0.77366668 4284837734
0.35767001 0.23727126 0.77300006 4282667586
0.36196372 0.23751891 0.77266669 4282272572
0.36786908 0.23803642 0.77359998 4283588434
0.37285891 0.23728961 0.77366668 4283193668
0.37740105 0.23721406 0.77314293 4283523152
0.38036573 0.23737469 0.77350008 4284181595
0.31310162 0.2419292 0.77400005 4286601820
0.34872627 0.2417711 0.77333337 4283455059
0.35214496 0.24252248 0.77216673 4284901989
0.3571662 0.24179238 0.77300006 4285684292
0.36259916 0.24202991 0.77233338 4284695096
0.36825994 0.24217765 0.77366668 4285423946
0.37395841 0.24258417 0.77350008 4285682743
0.37752461 0.24265058 0.77280003 4285486404
0.38020259 0.24148445 0.77300006 4284374604
0.31511205 0.24628843 0.77100003 4287131762
0.35243183 0.24541505 0.77350008 4286084982
0.35675186 0.24654549 0.77350008 4285999667
0.36237532 0.24679317 0.77400005 4286590771
0.36802989 0.24730439 0.77385724 4286721330
0.37297702 0.24789399 0.77350014 4287050553
0.37715486 0.24787118 0.77316672 4287053889
0.36351135 0.25000882 0.77400005 4286853946
0.36677641 0.25113437 0.77400005 4287245880
0.37257263 0.25310394 0.77380008 4287706688
0.37558934 0.25174055 0.77200001 4287380802
0.37401664 0.25736153 0.773 4287645513
0.31780687 0.26143062 0.77200001 4281815097
0.36354223 0.26372015 0.77350008 4284765775
0.3657096 0.26376423 0.77350008 4284699979
0.37196001 0.2626625 0.77300006 4283059007
0.36894929 0.26727289 0.77100003 4281552953
0.37031317 0.26509759 0.77400005 4284640347
0.36976561 0.27207503 0.77250004 4280767546
0.36769295 0.27631134 0.77250004 4281227323
0.36349717 0.28264707 0.77250004 4281032257
0.35946769 0.28594634 0.77300006 4281558086
0.32292044 0.058251079 0.77600002 4283573282
0.33768633 0.05844168 0.77850008 4287594113
0.34202161 0.058281764 0.77633333 4288583321
0.34827173 0.058448046 0.77850008 4287531404
0.35160416 0.058301508 0.77650005 4287664529
0.31410953 0.064475685 0.77500004 4285213738
0.31743163 0.06261716 0.77800006 4285411115
0.32123169 0.060431223 0.77700001 4283975489
0.35690305 0.061464839 0.77650005 4285405726
0.36279178 0.063680232 0.77775002 4286195240
0.36704463 0.063366391 0.77640003 4286064426
0.37243795 0.06384635 0.77700007 4285735204
0.37650192 0.063912928 0.77600002 4285934892
0.36357951 0.067623951 0.77866673 4285998891
0.36752596 0.067796104 0.77649999 4285933097
0.3732065 0.067872122 0.77724999 4285407266
0.37783462 0.066891387 0.77800006 4285737769
0.36445135 0.071174949 0.77900004 4285013794
0.36808589 0.072116479 0.77766675 4284818471
0.37309605 0.072065696 0.77700001 4284555041
0.37852365 0.07230746 0.7772001 4285280560
0.31281385 0.079377294 0.77700001 4286201400
0.35807687 0.078556567 0.77900004 4284365119
0.36735353 0.077075757 0.77880007 4284426545
0.37141338 0.076086439 0.77866673 4284623151
0.37797022 0.075737506 0.77780008 4284952882
0.38058606 0.079462908 0.77700001 4286872440
0.3136186 0.081691995 0.77900004 4285875004
0.36234513 0.083845384 0.77900004 4284302166
0.37383851 0.081707686 0.77850008 4284824644
0.37515426 0.083876625 0.77900004 4284435024
0.38133067 0.082786262 0.77850008 4285226849
0.35892582 0.086951196 0.77850008 4284043354
0.36259672 0.08725471 0.77800006 4283845728
0.36742896 0.088391632 0.778 4283913317
0.37239218 0.089352906 0.77766663 4283980642
0.37516356 0.087047309 0.77900004 4284570464
0.38165155 0.087972961 0.77766675 4284045663
0.35385141 0.094390541 0.77900004 4287336598
0.35976592 0.090062998 0.77800006 4283453275
0.36209872 0.092490308 0.77766675 4284243570
0.36775303 0.092660069 0.7768572 4283585894
0.37255383 0.092996806 0.77575004 4283322975
0.37699831 0.092261292 0.77833337 4283059803
0.38205376 0.092119873 0.77700001 4284179049
0.35811776 0.098625161 0.77900004 4284115067
0.36224574 0.097641498 0.77780002 4284049537
0.36769149 0.09721075 0.77759999 4283719796
0.37257862 0.097487047 0.778 4284508279
0.37680668 0.098152749 0.77900004 4285560959
0.3817178 0.097396865 0.77700007 4286416780
0.30990663 0.10226835 0.77500004 4287725937
0.31150603 0.10490663 0.77900004 4288120696
0.35709405 0.10321788 0.77860004 4283852154
0.3621847 0.10280427 0.77855563 4282801271
0.36710086 0.10270163 0.77766663 4282143087
0.37246132 0.10332935 0.77771431 4282800751
0.37734771 0.10244144 0.77771431 4284312437
0.38165846 0.10264992 0.77683336 4285890950
0.31110618 0.10793225 0.778 4288055160
0.35281557 0.10706423 0.77900004 4287337112
0.35712585 0.10768882 0.77833337 4286351244
0.36170128 0.10785149 0.77840006 4285299074
0.36707544 0.1077194 0.77833343 4284575863
0.37213674 0.1079067 0.77700001 4285167742
0.37724102 0.10785966 0.77650005 4284378486
0.38127333 0.10780925 0.77600002 4285562757
0.35729221 0.1126635 0.77866673 4286219662
0.36226663 0.11232772 0.77866673 4286153350
0.36752695 0.11232184 0.77850008 4286284679
0.37223503 0.11215013 0.77716666 4285166456
0.37810981 0.11232945 0.77825004 4283588971
0.38203004 0.1122424 0.77750003 4284970881
0.35367805 0.11650258 0.77850008 4286154905
0.35735437 0.11679264 0.77800006 4284838270
0.36282766 0.11751498 0.778 4286217349
0.36689141 0.11755241 0.7761429 4285624699
0.37240863 0.11690136 0.77600002 4286216318
0.37712201 0.11730162 0.77616668 4285821050
0.3810105 0.11768763 0.77580005 4284506735
0.36252916 0.12331997 0.77800006 4288647320
0.36750001 0.12244663 0.77700007 4286279285
0.37282315 0.1229559 0.77740008 4287727245
0.37840435 0.12298186 0.77875006 4286476151
0.38233203 0.12288629 0.778 4287727756
0.35287642 0.12820032 0.77900004 4285165953
0.35759452 0.12800002 0.77766675 4286210669
0.36237821 0.12712531 0.77650005 4288119436
0.36764768 0.12742388 0.77571434 4287396226
0.37293333 0.12678409 0.77625 4287790983
0.3779414 0.12705116 0.77775002 4287001467
0.38237929 0.12768535 0.77760005 4287265922
0.35181776 0.13031109 0.77900004 4286483868
0.35791847 0.13233687 0.77833337 4287530895
0.3625173 0.13258882 0.77720004 4288714654
0.36742613 0.13301425 0.77583337 4287926678
0.37310761 0.13218467 0.77700001 4288121489
0.37789696 0.1322598 0.7772857 4287530637
0.38105416 0.13276577 0.77600002 4287400333
0.35474536 0.13825302 0.77600002 4287137422
0.3575691 0.13710538 0.7766 4288584610
0.3627775 0.13745429 0.77724999 4289110696
0.36740547 0.13760883 0.77800006 4287927706
0.37204003 0.13737296 0.77649999 4288322465
0.37760285 0.13746041 0.77560008 4287926680
0.38203034 0.13822849 0.77500004 4287729044
0.34872565 0.1435716 0.77833343 4288125862
0.35267565 0.14241755 0.77742863 4286611079
0.35822496 0.14277151 0.7775715 4286739326
0.36268735 0.14268804 0.77700001 4287330692
0.36702889 0.14239696 0.77760005 4285948267
0.37220627 0.1427023 0.77677774 4286935678
0.3779231 0.14240092 0.77657145 4286540662
0.38233528 0.14351477 0.77700001 4287792782
0.34857154 0.14717206 0.77875006 4287206049
0.35250303 0.14810522 0.77800006 4286613137
0.3572672 0.14756717 0.77742863 4287860631
0.3627629 0.14819576 0.77633333 4289044904
0.36738595 0.14716597 0.77633333 4287136393
0.37281868 0.14779568 0.77575004 4288124315
0.37819785 0.14825435 0.77800006 4287269007
0.3818883 0.14749599 0.7772001 4288716452
0.34977311 0.15251368 0.77900004 4287272101
0.35274881 0.15243079 0.77850002 4285823626
0.35752395 0.15218624 0.77820003 4286278776
0.36237887 0.15252003 0.77759999 4285490543
0.36728394 0.15227966 0.7762 4285622386
0.37308902 0.15211654 0.77625 4285490801
0.3781088 0.15244168 0.77775002 4285226343
0.38216603 0.15237695 0.77725005 4285426289
0.31114295 0.1595926 0.77800006 4288323493
0.34831423 0.15709496 0.77760005 4287272872
0.35232338 0.15751727 0.77749997 4287600552
0.35689822 0.1576754 0.77816677 4287336608
0.36211765 0.15765212 0.77788889 4287271325
0.36721107 0.15757315 0.77733344 4286678161
0.37150112 0.15760271 0.77733344 4286152332
0.37712574 0.15774967 0.77785718 4285627272
0.38130018 0.15698387 0.77650005 4286023825
0.31074852 0.16254964 0.77700007 4287600543
0.35410085 0.1631221 0.77900004 4284641666
0.35673761 0.16287953 0.77775007 4285036422
0.3621262 0.16292985 0.7778334 4285430150
0.3676888 0.16259073 0.77600002 4285955980
0.37316921 0.16268405 0.77625 4285364615
0.37727436 0.1622771 0.77719998 4285496456
0.38056791 0.16269507 0.77600002 4286285969
0.30995455 0.16528292 0.77500004 4286679701
0.35355911 0.16761975 0.77775007 4285036423
0.35761735 0.16720235 0.77649999 4285299594
0.36216223 0.16740909 0.77600002 4285957010
0.36803555 0.16696133 0.7766667 4286088336
0.37272915 0.16720998 0.77600002 4286088594
0.37760729 0.16706668 0.77780008 4285627784
0.38109744 0.16714314 0.77700007 4286745747
0.34964818 0.17146248 0.77850008 4287207338
0.3531383 0.17179938 0.77833343 4286352027
0.35695988 0.17271878 0.77642864 4285892246
0.36328089 0.17279628 0.77740002 4285891475
0.36728653 0.17215991 0.77628571 4285825423
0.37256348 0.17225271 0.77650005 4286088337
0.37734818 0.17215069 0.77583337 4286482834
0.38098541 0.17236567 0.77666664 4287534746
0.35318112 0.17815413 0.77833337 4285167752
0.357503 0.17792337 0.77780008 4285365388
0.36227274 0.17735609 0.77700007 4286022803
0.36661923 0.17732418 0.77575004 4286153873
0.3722499 0.17791155 0.77720004 4285956235
0.37701064 0.17775488 0.77725005 4285429886
0.38080564 0.17753188 0.77766675 4286416264
0.34922934 0.1825196 0.77900004 4286286752
0.35316145 0.18325408 0.77900004 4285167754
0.35892031 0.18173021 0.77833337 4285890960
0.36283505 0.18262953 0.77750009 4285890700
0.36689323 0.18167076 0.77625 4285956493
0.37222323 0.18170123 0.77616674 4286351249
0.37740111 0.18183945 0.77500004 4287863713
0.35338855 0.18732096 0.77825004 4285167496
0.35735717 0.18752785 0.77771425 4286154130
0.36199287 0.18712887 0.77714294 4285759883
0.36745533 0.18722589 0.77733344 4285957262
0.37184012 0.18730797 0.77749997 4286088334
0.37696454 0.18762827 0.77750003 4286613390
0.34788311 0.19382444 0.77900004 4285761692
0.35216594 0.19315046 0.77900004 4286089625
0.35730129 0.19271842 0.77850008 4286154128
0.36220875 0.19251911 0.77749997 4285299075
0.36758649 0.1925713 0.77750003 4285167745
0.37273493 0.19250412 0.77700001 4285561987
0.37788638 0.19244084 0.77649999 4286877074
0.35346413 0.19973576 0.77700001 4286416784
0.35718849 0.19798712 0.77714288 4285693830
0.36240599 0.19684708 0.7778334 4285496195
0.36748537 0.1977938 0.77716666 4285167744
0.37252823 0.19767044 0.77644444 4284969849
0.37748653 0.1971944 0.77600002 4285955971
0.3133871 0.20184046 0.77800006 4285891468
0.35349387 0.20291631 0.77700001 4285562247
0.35772601 0.20337501 0.77780008 4284510074
0.36305249 0.20229138 0.77833337 4284312951
0.36766657 0.20331188 0.77880007 4284576122
0.3726851 0.20197533 0.77666664 4285628036
0.37742937 0.20384252 0.77750003 4287403417
0.35400084 0.20848772 0.77800006 4286549659
0.35784125 0.20826417 0.77700001 4286155417
0.36274463 0.20714769 0.77740008 4286287002
0.36798882 0.20757769 0.77800006 4286549913
0.37278908 0.20789714 0.77900004 4286878875
0.37892842 0.20778216 0.77825004 4287334284
0.31171393 0.21268243 0.77900004 4285825159
0.35330966 0.2128619 0.77716678 4285890186
0.35692269 0.21203725 0.77725005 4286611856
0.36252537 0.21275704 0.77771431 4286214014
0.36800072 0.2123666 0.77866673 4286147450
0.37206146 0.21277343 0.77733332 4285815656
0.37722698 0.21239926 0.77833337 4286212466
0.38057822 0.21386549 0.77700007 4287203978
0.35457018 0.21940088 0.77900004 4285889926
0.35781637 0.21762314 0.7786001 4286082169
0.36220908 0.21757607 0.77757138 4286279548
0.36799482 0.21764076 0.77820003 4286083965
0.37257332 0.21835652 0.77825004 4285757565
0.37738657 0.2179344 0.77880007 4286679434
0.38066256 0.21688165 0.77633339 4287205260
0.35392451 0.2221683 0.77750003 4285891209
0.35644114 0.22252786 0.77639997 4285365638
0.36231208 0.2221325 0.77700001 4285364870
0.36767027 0.22274554 0.77766675 4286020484
0.37277025 0.22376311 0.77850008 4284768614
0.37738547 0.22307335 0.77833343 4284572773
0.38071239 0.22239879 0.77700007 4286745223
0.30925912 0.22510409 0.77800006 4281876789
0.34851456 0.22717902 0.77850002 4285494644
0.35276091 0.22737841 0.77716666 4285560695
0.35756612 0.22800511 0.77666664 4285430138
0.36229822 0.22697282 0.77625006 4285496448
0.36723551 0.22719012 0.77583337 4285165168
0.37231323 0.22774187 0.77642858 4285625974
0.3776128 0.22772536 0.77714288 4285363828
0.38158387 0.22735824 0.77750003 4285298545
0.30810726 0.23057072 0.77500004 4286872432
0.34910911 0.23198032 0.77850008 4281283886
0.35309425 0.23287711 0.77775007 4283455312
0.35775685 0.23247324 0.77616668 4282338369
0.36295608 0.23242526 0.77575004 4282931275
0.36751258 0.23264067 0.77625 4281483830
0.37262937 0.23148537 0.77566671 4283259985
0.37811199 0.23266645 0.77575004 4283325265
0.38149503 0.23279834 0.77600002 4285233518
0.31255078 0.23891346 0.77800006 4286138185
0.34400058 0.23633112 0.77900004 4283521362
0.34794855 0.23801003 0.77733344 4284442208
0.35171816 0.2370013 0.77616674 4284639843
0.3564176 0.23544995 0.77550006 4282404161
0.36373165 0.23540878 0.77500004 4285956727
0.36744523 0.23576322 0.77600002 4285429872
0.37021559 0.23551175 0.77500004 4285561457
0.31577751 0.24212593 0.77800006 4287199094
0.34363842 0.2424226 0.77800006 4284771176
0.34594434 0.24238762 0.77640003 4284508004
0.35954979 0.2438605 0.77500004 4285606951
0.37179682 0.24335706 0.77500004 4285942074
0.34392959 0.24791655 0.77850008 4287797144
0.34749767 0.24744552 0.77683336 4287270800
0.35252476 0.24832408 0.77600002 4287994525
0.35816941 0.24738996 0.77500004 4286004034
0.34800708 0.2520366 0.7778334 4288177520
0.35280353 0.25168723 0.77649999 4290550951
0.35712492 0.25175685 0.77649999 4289034885
0.36205569 0.25256917 0.77542865 4288762463
0.36731118 0.25466514 0.77500004 4287770943
0.37056723 0.25472802 0.77500004 4287574077
0.32154107 0.25855494 0.77600002 4284903519
0.34749758 0.25560969 0.77900004 4287638844
0.35281092 0.25616437 0.77780002 4287639616
0.35752311 0.25732327 0.77716666 4287836479
0.36210176 0.25763813 0.77600002 4287967809
0.36808589 0.25837314 0.77649999 4287968577
0.37219876 0.25829458 0.77600002 4288100161
0.34435385 0.26198733 0.77900004 4286065709
0.34715274 0.26170248 0.77800006 4286917935
0.35268539 0.26241332 0.77825004 4286721843
0.3569102 0.26258349 0.77800006 4286788668
0.36187738 0.26202938 0.77560008 4285869876
0.36844885 0.26225674 0.77633333 4286264631
0.3720777 0.26233277 0.77633333 4286004282
0.34767032 0.26632994 0.77900004 4287469962
0.35293975 0.26631007 0.77866673 4286088312
0.35808361 0.2672562 0.77800006 4286020465
0.36234394 0.26701862 0.77640003 4285034851
0.36807987 0.26692304 0.7753334 4282405695
0.32231134 0.27078903 0.77750003 4280896559
0.35860753 0.270827 0.77900004 4279910697
0.3627322 0.27074039 0.77850008 4280107819
0.367668 0.27188483 0.77733332 4280634671
0.37018517 0.27288428 0.77800006 4281358909
0.36315167 0.27954283 0.77900004 4282083921
0.36732787 0.27763239 0.77820003 4280636212
0.33091995 0.2846576 0.77700001 4282342730
0.36323044 0.2825056 0.77760011 4280965951
0.36639541 0.28089926 0.77650005 4280834620
0.35478884 0.28727621 0.77700001 4280506173
0.35713467 0.28661042 0.77500004 4280571706
0.36174178 0.28563491 0.77800006 4280704316
0.37435383 -0.019697627 0.78200006 4279637255
0.32711741 0.058626484 0.78100002 4283704357
0.33475193 0.058852721 0.78400004 4284499012
0.33559045 0.058628134 0.78100002 4284896339
0.32224116 0.06293875 0.78200006 4284830796
0.34281442 0.061336245 0.78175002 4285405987
0.34771156 0.061889324 0.78200001 4285667874
0.35296708 0.061744083 0.78280002 4285405727
0.35684243 0.063582011 0.78100008 4285733920
0.36064568 0.064915471 0.78000003 4286063399
0.31674331 0.06819424 0.78150004 4285476910
0.35379198 0.0673353 0.78366667 4287327084
0.35732275 0.067514241 0.78262502 4286798427
0.36182353 0.06852857 0.78100008 4285868076
0.37881082 0.069179282 0.78000003 4285736743
0.35746112 0.072526656 0.78233337 4285357917
0.36282554 0.072623394 0.78100002 4285343530
0.38037431 0.071389325 0.78100002 4286265143
0.35785055 0.077267088 0.78200001 4283648072
0.3628214 0.077933669 0.78062505 4284821304
0.36730075 0.077664614 0.78050005 4284295216
0.37292746 0.079073243 0.78033334 4284295731
0.37669253 0.07869646 0.78000003 4284755507
0.38039723 0.079865701 0.78100002 4284691255
0.31482598 0.084125094 0.78200006 4287324505
0.34923884 0.080005884 0.78300005 4282995018
0.35724917 0.083078511 0.78183341 4283583824
0.36262277 0.082973771 0.78075004 4284037703
0.36778754 0.082757615 0.78060001 4284497739
0.37222514 0.083305255 0.78033334 4284630863
0.37848914 0.082581483 0.78000003 4284629577
0.38040996 0.084104568 0.78100002 4284172111
0.34756005 0.088605762 0.78400004 4284771429
0.35351634 0.086379416 0.78300005 4283192397
0.35654229 0.087457977 0.78120005 4285230190
0.36922202 0.086083353 0.78000003 4284963172
0.3729488 0.086835004 0.78033334 4285754226
0.37886065 0.087168902 0.78000003 4284702052
0.34712264 0.092737816 0.78300005 4286810249
0.35475376 0.091456249 0.78100002 4286547074
0.35772631 0.092462756 0.78049999 4286414982
0.36070049 0.094525561 0.78000003 4285559683
0.37994361 0.090347938 0.78000003 4285099384
0.38139367 0.09361808 0.78074998 4283586916
0.34784269 0.098399498 0.78300005 4286021513
0.3541517 0.097934112 0.78200006 4286481290
0.35689878 0.097815037 0.78100002 4286415760
0.36070558 0.096641235 0.78000003 4285363590
0.37139821 0.09878774 0.78000003 4282009692
0.37782025 0.096692421 0.78000003 4284903031
0.38177234 0.096890256 0.78150004 4282337360
0.34330902 0.10241403 0.78400004 4287074713
0.34715438 0.1026328 0.78400004 4286548625
0.35332015 0.10276677 0.78250003 4287206297
0.35606602 0.10105388 0.78150004 4286285718
0.37140521 0.10090467 0.78000003 4281484382
0.34791264 0.10842197 0.78280008 4287665818
0.35281053 0.10767831 0.78039998 4287271319
0.35647166 0.1093256 0.78000003 4285165429
0.36715394 0.10935856 0.78000003 4285298298
0.31230611 0.11258303 0.78100002 4288186746
0.34686109 0.1128106 0.78233337 4287271577
0.35251653 0.11258466 0.78066677 4286745750
0.35647753 0.11144174 0.78000003 4286020996
0.31257352 0.11797144 0.78166676 4287854698
0.34226853 0.11835478 0.78400004 4287863199
0.34709302 0.11712918 0.78283334 4286614678
0.35234278 0.11753384 0.78120005 4285759890
0.35650295 0.11990764 0.78000003 4285297282
0.36077127 0.11886336 0.78000003 4285362813
0.36504424 0.11782004 0.78000003 4286744980
0.31270826 0.12331973 0.78200006 4286796101
0.34227279 0.12048085 0.78400004 4287731871
0.34722367 0.12238519 0.78250003 4286417817
0.35214934 0.12249102 0.78114289 4285431695
0.35739675 0.12302929 0.78100002 4286150018
0.36254698 0.12227792 0.78150004 4285949552
0.3129099 0.12763987 0.78250003 4288179038
0.34262848 0.12871478 0.78233337 4287535008
0.3469975 0.12733296 0.78160006 4286615196
0.3519493 0.12685296 0.78050005 4285562509
0.35782117 0.12634346 0.78050005 4287729046
0.31311202 0.1319657 0.78300005 4287189831
0.34377849 0.13192981 0.78250003 4287272351
0.34738567 0.13168909 0.78100002 4286483613
0.35245496 0.1318163 0.78039998 4286088596
0.3779887 0.13271423 0.78000003 4287859602
0.31338206 0.13738702 0.78366679 4287784284
0.34380755 0.13879873 0.78333336 4287403683
0.34759957 0.13711251 0.78325003 4286812063
0.35275769 0.13737923 0.78162503 4286285717
0.3553285 0.13506635 0.78200006 4286350738
0.34394476 0.14210153 0.78200006 4287863463
0.34676769 0.14181124 0.78033334 4287535269
0.35017335 0.14105807 0.78000003 4287600289
0.34422985 0.14545631 0.78100002 4287140000
0.34628472 0.14797102 0.78080004 4286812064
0.34344023 0.15452167 0.78400004 4286615201
0.34652796 0.15262525 0.78200006 4286746787
0.31273764 0.15722963 0.78200006 4288126114
0.34345275 0.15771531 0.78400004 4286615201
0.34589458 0.15737626 0.78225005 4286549665
0.38030535 0.15607676 0.78000003 4284900723
0.3447488 0.16475761 0.78200006 4285893795
0.34720105 0.16240455 0.78212506 4285827228
0.3518486 0.16303165 0.78033334 4284510595
0.34277582 0.1665861 0.7840001 4285433501
0.34697926 0.16799194 0.78216672 4285696416
0.35150096 0.1668102 0.78150004 4285695384
0.31569618 0.1714607 0.78400004 4286350736
0.34777787 0.17210487 0.78150004 4286286753
0.35247725 0.17392728 0.78000003 4285562511
0.34333467 0.17890632 0.78350008 4285630366
0.34812191 0.17811036 0.78299999 4286483614
0.35152361 0.17803653 0.78100008 4285364874
0.31452304 0.18352294 0.78100002 4285890701
0.31659484 0.18305096 0.78350008 4285957006
0.33926448 0.18006428 0.78400004 4285433506
0.34271312 0.18284835 0.78366667 4285367712
0.34665498 0.18213682 0.78125 4286155939
0.35252663 0.18135768 0.78000003 4286154648
0.35641304 0.18224657 0.78066665 4286022805
0.31533527 0.18611893 0.78300005 4285693576
0.34287059 0.18715328 0.78233337 4285433505
0.34720388 0.18663013 0.78000003 4285564061
0.35149646 0.18719158 0.78000003 4284970377
0.31456003 0.19412865 0.78100002 4285628043
0.31576025 0.19274445 0.78400004 4285759631
0.34369075 0.19181316 0.78250003 4285762466
0.34746894 0.19175951 0.78100002 4285696157
0.35218257 0.19203819 0.78025001 4285958040
0.34694657 0.19766672 0.78166676 4285827743
0.35280147 0.19738142 0.78033334 4285430921
0.34773552 0.20190647 0.78240001 4286155676
0.35177207 0.2026924 0.78033334 4285825679
0.37322766 0.20496264 0.78000003 4284246896
0.31500816 0.20500436 0.78200006 4286023054
0.34811085 0.20784628 0.78271431 4286550175
0.35267568 0.2079335 0.78079998 4286747038
0.35835069 0.20705867 0.78050005 4286418332
0.37326801 0.20816432 0.78000003 4287403164
0.37652224 0.20820569 0.78000003 4287862172
0.3471489 0.21263385 0.78183341 4286220951
0.35209981 0.21228139 0.78166676 4286483863
0.34382218 0.21639417 0.78400004 4285103501
0.3473371 0.21699739 0.78216672 4285760398
0.351917 0.21816167 0.78080004 4286022797
0.35500136 0.21754956 0.78000003 4284638833
0.38100931 0.21788709 0.78000003 4287337360
0.31102887 0.22320783 0.78250003 4284377179
0.3431879 0.22321454 0.78240001 4285167743
0.34724802 0.22163871 0.78185719 4285431429
0.35233191 0.22258975 0.78033334 4285957002
0.37253067 0.22213405 0.78033334 4286743433
0.37671953 0.2221023 0.78000003 4286414721
0.38104242 0.22002764 0.78000003 4287074702
0.31047165 0.22916204 0.78100002 4281876789
0.34320271 0.22768755 0.78233337 4285231726
0.34649831 0.22812022 0.78000003 4285231727
0.35078472 0.22603479 0.78000003 4286745485
0.33451661 0.23498408 0.78200006 4284047706
0.33751002 0.23346381 0.7840001 4284179292
0.34348103 0.23277174 0.78142864 4283126347
0.34771156 0.2326957 0.78099996 4283257933
0.351338 0.23487772 0.78100002 4284310878
0.31390753 0.23703597 0.78233337 4285676092
0.31601009 0.23755507 0.78400004 4285609272
0.33389792 0.23848504 0.78300005 4284507744
0.33784381 0.2372051 0.78216672 4284836967
0.34216091 0.2377183 0.78133339 4284705637
0.34704304 0.23696144 0.78100002 4283784279
0.31738266 0.24123515 0.78200006 4286739826
0.33696631 0.24265064 0.78250003 4284310624
0.34160244 0.24216987 0.78075004 4284310624
0.31876981 0.24703066 0.78000003 4287133047
0.33881292 0.24685736 0.78333336 4286811018
0.341813 0.24704628 0.78060001 4286876298
0.32221338 0.25442839 0.78300005 4287329908
0.3390221 0.25202328 0.78325003 4289031287
0.34249005 0.25246048 0.7816667 4287717739
0.34510884 0.25407201 0.78100002 4287573051
0.32208771 0.25666952 0.78000003 4285422935
0.34331048 0.25696978 0.78175008 4287769655
0.34733924 0.25839701 0.78099996 4287704117
0.35122687 0.25813365 0.78000003 4287835706
0.32446733 0.26303422 0.78300005 4281946172
0.34292841 0.26278818 0.78150004 4285545274
0.34751731 0.26277584 0.78125 4286199094
0.35184136 0.2617721 0.78125006 4287049013
0.3241201 0.26806277 0.78200006 4281093424
0.34356356 0.26654789 0.78200006 4287009923
0.35494354 0.26995197 0.78300005 4279972639
0.35575888 0.26895767 0.78000003 4281156401
0.35274461 0.27309626 0.7828334 4280042278
0.35701108 0.27291271 0.78099996 4280239659
0.36254001 0.27351448 0.78033334 4280239658
0.3272481 0.27847499 0.78400004 4281159990
0.35237947 0.27761602 0.78280002 4280372788
0.35715884 0.27693185 0.78180009 4280175663
0.36220682 0.27698511 0.78040004 4280109870
0.36594373 0.27580309 0.78050005 4280175659
0.33042097 0.28393149 0.78100002 4280111675
0.35275078 0.28108954 0.78250003 4282412885
0.35772777 0.28233674 0.78216672 4283267940
0.36130953 0.28271434 0.78200006 4280307252
0.33727345 0.28788215 0.78166676 4280572479
0.34287483 0.28882974 0.78200006 4280902211
0.34723395 0.28891617 0.78200006 4279848751
0.35285398 0.2876375 0.78242862 4280112182
0.35699943 0.28587073 0.78200006 4280769598
0.36094475 0.28668603 0.78100002 4280441144
0.33219719 0.058964662 0.78550005 4283114020
0.32728991 0.062237494 0.78650004 4284490785
0.33046833 0.06136461 0.78900003 4285999402
0.33795285 0.06170512 0.78650004 4285865764
0.34200823 0.063264705 0.78600007 4285669159
0.32196614 0.065431885 0.78650004 4285942083
0.32536584 0.065473236 0.78700006 4285225810
0.3386015 0.067693926 0.78800005 4286802281
0.34230193 0.067581311 0.78666681 4286474345
0.34742841 0.067544065 0.78616673 4286670695
0.35124058 0.067923672 0.78560007 4287593081
0.31876898 0.072891951 0.78650004 4285673518
0.338604 0.073030442 0.78800005 4283586127
0.34266624 0.072988249 0.78750008 4283915863
0.34780204 0.072945818 0.78700006 4284310621
0.35282019 0.072882742 0.78625005 4284639330
0.31978163 0.076327838 0.78900003 4285673775
0.33860633 0.077302232 0.78800005 4285163878
0.34230709 0.077174298 0.78666669 4284441951
0.34725326 0.07708928 0.78575003 4283126604
0.3503502 0.077067077 0.78550005 4282797639
0.35615367 0.077171862 0.7865001 4282533698
0.33904073 0.084883377 0.78900003 4282335292
0.34255308 0.082562499 0.78722227 4283586385
0.34766272 0.082510017 0.78666669 4284245085
0.35249901 0.083458021 0.78550005 4283455569
0.35593179 0.080319539 0.78600001 4283915351
0.31623447 0.087694272 0.78550005 4287000166
0.32405555 0.088084146 0.78900003 4284897863
0.33797055 0.08702074 0.78900003 4285954165
0.34306389 0.087703362 0.78740007 4285757811
0.3474586 0.087521791 0.787 4285429102
0.31724036 0.092242248 0.78800005 4287200371
0.32191774 0.093427993 0.78900003 4286608997
0.34332985 0.092468075 0.78800005 4286810248
0.34631032 0.092024878 0.78600001 4286612611
0.31764248 0.097703077 0.78900003 4287595382
0.33797929 0.097711742 0.78900003 4284772479
0.3423759 0.097442277 0.78677785 4286152585
0.34617078 0.097309321 0.7856667 4286349963
0.31764245 0.10411575 0.78900003 4287328353
0.32191947 0.10411637 0.78900003 4285491283
0.33834168 0.10270169 0.78900003 4285629070
0.34173286 0.10289914 0.78775001 4286022283
0.35123348 0.10149311 0.78500003 4286745491
0.31871206 0.10839117 0.78900003 4287594606
0.32171637 0.10725433 0.78850007 4285162060
0.33906212 0.10733606 0.78900003 4286352019
0.34247974 0.10742942 0.78628582 4286679181
0.34696218 0.10680651 0.78500003 4287468438
0.31833738 0.11218297 0.78860009 4287463278
0.3212423 0.11242967 0.78733331 4285096525
0.33790326 0.11280264 0.78771436 4287534234
0.34205815 0.11226042 0.78600013 4287731355
0.31851262 0.1179357 0.78850007 4287725166
0.32090479 0.11763797 0.78650004 4285095756
0.33853897 0.11837731 0.78775007 4287928990
0.34192014 0.11647401 0.7856667 4287862942
0.31851441 0.1222102 0.78850007 4287525475
0.32151937 0.12213514 0.78800005 4285752657
0.33822313 0.12199894 0.787 4288060576
0.34336314 0.12357813 0.7856667 4287534750
0.34636551 0.12292693 0.78600001 4287009435
0.33773318 0.12754767 0.78833342 4288060319
0.34151673 0.12687813 0.78633338 4287797663
0.32193601 0.13298047 0.78900003 4285293132
0.33760101 0.13283676 0.78800005 4288389283
0.34124464 0.13259336 0.78650004 4288126371
0.32194167 0.13832711 0.78900003 4285424207
0.33460319 0.13719 0.78850007 4288520350
0.3379491 0.13787971 0.78628576 4288323493
0.34185019 0.13688371 0.78540003 4288060581
0.31451941 0.14321262 0.78650004 4288057227
0.32194418 0.14046593 0.78900003 4285227605
0.33439764 0.14030942 0.78800005 4288717727
0.33715197 0.14277357 0.78740007 4288257700
0.34187338 0.14345872 0.78640002 4287994790
0.31412372 0.14728749 0.78550005 4287994528
0.3219561 0.1490224 0.78900003 4284704103
0.33763617 0.14779933 0.78800011 4288191909
0.34235981 0.14753462 0.78650004 4287535013
0.31419662 0.15264504 0.7856667 4287534492
0.32195953 0.15116183 0.78900003 4284507238
0.33485055 0.15225983 0.78900003 4288323493
0.33721992 0.15188304 0.787 4287995048
0.34200042 0.15255371 0.78625011 4287141285
0.31799391 0.15879865 0.78800011 4287205010
0.32169911 0.15744701 0.78833342 4284506467
0.33830941 0.15694068 0.78825009 4287206820
0.34110487 0.15810531 0.78600007 4286680993
0.31846029 0.16277027 0.78825003 4287271061
0.32116604 0.16251844 0.78700006 4284244069
0.33757669 0.16271859 0.78775007 4287338408
0.34205082 0.16230936 0.78566664 4286484387
0.31753138 0.16789971 0.78725004 4286614164
0.32137999 0.16689402 0.78750002 4283719785
0.33762828 0.16648407 0.787 4286089630
0.3412869 0.16796243 0.78550005 4285499039
0.31851366 0.1726533 0.78700006 4286285456
0.32187 0.17249228 0.78866673 4283588714
0.33826235 0.17294072 0.78800005 4285498783
0.34209824 0.17298342 0.78566676 4285301662
0.34610862 0.17285754 0.78500003 4285761953
0.31790137 0.17725211 0.78766674 4286350992
0.32161003 0.17662399 0.78800005 4283983471
0.33763835 0.17769852 0.78775007 4285696419
0.34165961 0.17702326 0.78560007 4285499040
0.34685144 0.17748648 0.78500003 4286615971
0.31800181 0.18173137 0.78700006 4286088079
0.32143009 0.18399327 0.78750002 4284115572
0.33496287 0.18332593 0.78900003 4285433506
0.33798257 0.18202373 0.78700006 4285565092
0.34015268 0.18479823 0.78600001 4285696676
0.31797659 0.18826078 0.78600001 4286088592
0.32123739 0.18708456 0.78700006 4284773502
0.33832932 0.18686149 0.78800005 4285433504
0.34038708 0.18812406 0.78650004 4285630883
0.31812567 0.19190009 0.78633338 4285956751
0.33459246 0.1938062 0.78800005 4285039519
0.33725896 0.19258326 0.78820008 4284907675
0.34106097 0.19272523 0.78633338 4285038745
0.31913254 0.19776732 0.787 4285694349
0.33827713 0.19729094 0.78900003 4284710553
0.3427617 0.19744188 0.78625 4285236379
0.31955671 0.20230228 0.78800005 4285759882
0.33827224 0.20293632 0.78840005 4284842136
0.34229842 0.2026463 0.78642863 4286156964
0.34631148 0.20384139 0.78500003 4286156191
0.31662962 0.20819037 0.78600001 4285825675
0.33813336 0.20729598 0.78700006 4284776086
0.34203005 0.20780857 0.78666669 4285301912
0.3458069 0.20737246 0.78625 4285959068
0.31784874 0.21113089 0.78900003 4285890954
0.33816406 0.21219786 0.78850007 4284447120
0.34254733 0.21266823 0.78611118 4284972946
0.31412607 0.21645647 0.78500003 4285627780
0.33846232 0.21717174 0.78860009 4284249482
0.3422015 0.21826629 0.78620005 4284446343
0.33749941 0.22334047 0.78800005 4284707451
0.34161055 0.22235057 0.78625005 4284576380
0.32081881 0.2269001 0.78900003 4284574817
0.33482504 0.2270813 0.78800005 4285100402
0.3372162 0.22653291 0.78600007 4285297523
0.34002805 0.22627527 0.78500003 4286482054
0.31765631 0.23276617 0.78742868 4282929728
0.33401516 0.23307161 0.78766674 4282929480
0.33729061 0.23107442 0.7876001 4282797382
0.34137246 0.23132129 0.78633338 4283126603
0.31824243 0.23674272 0.78600007 4285623645
0.3331916 0.23726933 0.78733343 4284047960
0.31858233 0.24001746 0.78500003 4286740338
0.33273441 0.24284084 0.78680003 4285621601
0.32274196 0.24741758 0.78800005 4285686114
0.32820347 0.24706082 0.78900003 4286590007
0.33249551 0.24671388 0.78820002 4286011483
0.33625323 0.24847406 0.78575003 4287862937
0.32403147 0.25265589 0.78750002 4286604648
0.33333808 0.25323302 0.78900003 4289955989
0.33614445 0.25265992 0.78640002 4286788419
0.3260493 0.25790682 0.78700006 4286735713
0.33309293 0.25625905 0.78833342 4291398039
0.33749658 0.25731143 0.78740001 4288500577
0.34141946 0.25910494 0.7856667 4287769654
0.32888103 0.26166415 0.78850007 4284434753
0.33833328 0.26259419 0.78766674 4286466642
0.34089547 0.26316339 0.78600001 4285479225
0.32787874 0.266781 0.78766674 4281815609
0.33833742 0.26794845 0.78750002 4283327311
0.34212574 0.2681984 0.787 4283194957
0.32922789 0.27265787 0.78900003 4280502313
0.33969268 0.2713846 0.78800005 4280041764
0.3429859 0.27251998 0.78800005 4279975973
0.34757912 0.2724708 0.78700006 4280041767
0.35369071 0.27144459 0.78750002 4279972639
0.32846883 0.27737531 0.78700006 4281291317
0.34316519 0.27694994 0.78825003 4282083404
0.34809944 0.27720255 0.78637499 4281030460
0.33093721 0.28300163 0.78750002 4280766262
0.34393898 0.28193453 0.78900003 4280176688
0.34807414 0.28280425 0.78742868 4280768826
0.35172021 0.28357166 0.78500003 4280440120
0.33734596 0.28727359 0.78700006 4284452727
0.34318438 0.28773889 0.787 4280638010
0.34750283 0.28738928 0.78620005 4280177715
0.35133797 0.286268 0.78650004 4279979824
0.37311116 -0.015673 0.79300004 4282796086
0.33301589 0.06300357 0.79166669 4285867559
0.3361688 0.062923782 0.79066664 4285866790
0.32232708 0.06786342 0.79000002 4284886055
0.32807291 0.067519993 0.79224998 4285350973
0.33688065 0.06692116 0.79150003 4286268227
0.32337204 0.072793022 0.79124999 4285351487
0.32649097 0.071877263 0.79180002 4286206795
0.33041158 0.073584624 0.79400003 4285540129
0.33674106 0.072252505 0.79116672 4286933863
0.32242796 0.078048289 0.79200006 4285680449
0.32600161 0.0773338 0.79200006 4285617478
0.33699203 0.077668153 0.79175001 4287132785
0.32238641 0.082541265 0.79119998 4286273355
0.32528728 0.081981882 0.79200006 4285884245
0.33824492 0.082003117 0.79216671 4286412402
0.32179824 0.08727172 0.79133338 4286539610
0.32826141 0.088642657 0.79400003 4283968025
0.33430076 0.087458797 0.79300004 4283835421
0.3373197 0.087670535 0.79166669 4286412400
0.34162098 0.089274429 0.79000002 4284770661
0.32265291 0.092355408 0.79079998 4286213213
0.33451423 0.092888542 0.79350007 4285019947
0.33754203 0.092540674 0.79049999 4287466632
0.34162292 0.09141542 0.79000002 4285165420
0.32238656 0.096690401 0.79120004 4286279775
0.32528931 0.098075174 0.79200006 4283844914
0.33312285 0.097096801 0.79275 4285937445
0.33561099 0.096884876 0.79100001 4285422690
0.31804499 0.10210744 0.79000002 4287394146
0.32185489 0.10193648 0.792 4286541917
0.32570091 0.1014219 0.79300004 4284766273
0.33319515 0.10285238 0.7924 4286336575
0.33594039 0.10271509 0.79050004 4285428345
0.31804514 0.10638802 0.79000002 4287528558
0.32018623 0.10638829 0.79000002 4287463019
0.33313164 0.10783888 0.79275006 4286735187
0.33680141 0.10763884 0.79124999 4285562759
0.32018849 0.11495022 0.79000002 4287594864
0.32611588 0.11230689 0.79400003 4285618756
0.3320224 0.1121228 0.79266673 4287125320
0.33562472 0.1118912 0.79100001 4287665295
0.32611895 0.11768591 0.79399997 4285553223
0.33259431 0.11697129 0.79328579 4287455573
0.33627436 0.11728851 0.79124999 4287402129
0.33411944 0.12284237 0.79250002 4288647049
0.33521402 0.12245712 0.79000002 4288387993
0.31825215 0.12680376 0.79050004 4286862921
0.32172447 0.12746388 0.7906 4286212953
0.32612732 0.12844507 0.79400003 4286012232
0.3341254 0.12713921 0.79250002 4288582797
0.33522224 0.12781172 0.79000002 4288191639
0.31832242 0.13218643 0.79066676 4287060043
0.32073858 0.13229857 0.79133338 4287593836
0.3335456 0.13270356 0.79366666 4288045140
0.33523151 0.13316694 0.79000002 4288586138
0.31805801 0.13742754 0.79000002 4287258706
0.32118788 0.13718928 0.79066664 4286936418
0.32572716 0.13795614 0.79300004 4285615158
0.33295864 0.13783674 0.79224998 4287916124
0.3186658 0.14197974 0.79150003 4286075980
0.32148451 0.14287472 0.79050004 4285885796
0.32712033 0.14239231 0.79375005 4286805095
0.33349234 0.14235891 0.79350007 4286665293
0.33525106 0.14280832 0.79000002 4288651935
0.3184703 0.14724799 0.79100007 4287204751
0.321156 0.14725184 0.79100001 4286217596
0.32574466 0.14978144 0.79300004 4285953391
0.33329269 0.14764465 0.79300004 4287257690
0.33554408 0.14721762 0.79066676 4289177511
0.31887975 0.15280518 0.79200006 4287073683
0.3216137 0.15310131 0.79166669 4285954942
0.32595587 0.15310438 0.79350007 4285755501
0.33187476 0.15285993 0.79216671 4287922561
0.31888443 0.15602493 0.79200006 4287073684
0.32063392 0.15690255 0.79100001 4286678410
0.3261719 0.15858398 0.79400003 4285425766
0.33258444 0.15707096 0.79280007 4287269262
0.33629033 0.1572331 0.79066676 4287075746
0.32641262 0.16220073 0.79325002 4284900713
0.3327474 0.16233894 0.79271442 4287338658
0.33605367 0.16166787 0.79050004 4287469734
0.32024747 0.16634789 0.79000002 4286416784
0.3272438 0.16750732 0.79340005 4285365125
0.33291203 0.16759951 0.79325002 4287141541
0.33618358 0.1678942 0.79033333 4286615715
0.3269797 0.17242774 0.79325002 4284904833
0.33214077 0.17231785 0.79266673 4286024092
0.33705464 0.17208388 0.79149997 4285827231
0.32176334 0.17944044 0.79100001 4285101953
0.32553813 0.17760287 0.79233336 4283457642
0.33381709 0.17718425 0.79275006 4286025124
0.33550063 0.17719217 0.79033333 4285959076
0.32197404 0.18170264 0.79150003 4285168003
0.32582995 0.18313298 0.79300004 4283717733
0.33319411 0.18304744 0.79250002 4285039261
0.33580217 0.18164095 0.79100001 4285499299
0.32246995 0.18994363 0.79000002 4285760397
0.32724887 0.18747462 0.79219997 4284510847
0.33250344 0.18751381 0.79166669 4284907419
0.33640894 0.18729949 0.79066664 4285367713
0.32289088 0.19340761 0.79100001 4286023569
0.32606822 0.19187231 0.79350007 4282865505
0.3320404 0.19199026 0.79119998 4284644244
0.33671212 0.19012702 0.79050004 4285039262
0.32270485 0.19758244 0.79050004 4286023314
0.32615998 0.19730429 0.79366666 4282799712
0.33325672 0.19760583 0.7930001 4284315538
0.33567208 0.1976475 0.79050004 4285763242
0.32207823 0.20299269 0.79066664 4285957518
0.32632238 0.20278378 0.79400003 4283523434
0.33437651 0.20244652 0.79250002 4284315796
0.33648765 0.20163776 0.79066676 4284184467
0.32236698 0.20675153 0.79133338 4285825673
0.3259334 0.20684196 0.79300004 4284115825
0.33270836 0.20699263 0.79260004 4284842131
0.33608577 0.20754896 0.79133338 4284447381
0.31866544 0.21381783 0.79100001 4285759366
0.32280624 0.21120641 0.79325002 4285430658
0.32716104 0.21245494 0.7938 4283128673
0.33308044 0.21281835 0.79339999 4284775051
0.33609748 0.2122993 0.79300004 4284512657
0.31837192 0.21839271 0.79200006 4285430657
0.32708099 0.21764001 0.79300004 4283062621
0.33323959 0.21804138 0.79300004 4284380548
0.33643728 0.21743283 0.79200006 4284315275
0.31735131 0.22297901 0.79300004 4285824647
0.32217664 0.22474599 0.79150003 4284311394
0.32833192 0.22206087 0.79333335 4283917675
0.33328795 0.22285144 0.79216671 4284182139
0.3370246 0.22141007 0.79075003 4284182913
0.31800634 0.22756048 0.7924 4282995524
0.32267782 0.22863306 0.79000002 4283324746
0.33197665 0.2278142 0.79228574 4284641393
0.31748492 0.23089513 0.79050004 4280890147
0.32290566 0.23201139 0.79050004 4283785294
0.32796666 0.23342673 0.79399997 4280299031
0.33143681 0.23206611 0.79119998 4282272827
0.32301566 0.23745191 0.79066664 4283914568
0.32732689 0.23717217 0.79325002 4280166678
0.33167788 0.23705316 0.79150009 4280956968
0.32299238 0.24279585 0.79050004 4285621342
0.32756099 0.24269107 0.79257154 4284955443
0.33056068 0.24131562 0.79133338 4284043324
0.32585379 0.24672973 0.79033333 4284492078
0.32879382 0.25278589 0.79116672 4286459965
0.33221459 0.25199246 0.79025 4289560714
0.3290047 0.25768134 0.79066676 4285935670
0.33273524 0.25895306 0.79000002 4286393143
0.33319649 0.26253447 0.79100001 4284624945
0.33604661 0.26224399 0.79000002 4294896112
0.32957369 0.26758003 0.79000002 4280106274
0.33367276 0.26721364 0.79200006 4283655508
0.33610445 0.26658165 0.79000002 4285033055
0.33347765 0.27223399 0.79400003 4279976482
0.33709607 0.2723918 0.79216671 4279910946
0.34101936 0.27459469 0.79100001 4279714338
0.35151815 0.27224922 0.79000002 4280039200
0.32969004 0.27626017 0.79000002 4280568106
0.33274552 0.27916926 0.79200006 4280174887
0.33735707 0.2777608 0.79325008 4280504623
0.34063995 0.27751091 0.79000002 4279781161
0.33277804 0.28134906 0.79200006 4280502829
0.33716214 0.28263956 0.79300004 4282017867
0.34169009 0.28321639 0.79225004 4280570677
0.34511885 0.28303066 0.79000002 4280176431
0.33461609 0.28538588 0.79100001 4280111162
0.33813733 0.28671163 0.79150003 4283399268
0.34225607 0.28688222 0.7924 4281623367
0.33298194 0.067215919 0.79500002 4285212195
0.33513749 0.067216262 0.79500002 4285736487
0.33286279 0.07215412 0.79600006 4285539875
0.33527923 0.072632454 0.79533339 4285604386
0.32867354 0.079061769 0.79500002 4284630840
0.33253229 0.078133769 0.79650003 4285736991
0.33535093 0.078034431 0.79550004 4285080608
0.32950073 0.082500964 0.79700005 4283511071
0.33295006 0.082551956 0.79750007 4285671454
0.33514166 0.082294136 0.79500002 4284293662
0.32867429 0.085523419 0.79500002 4283837211
0.33204764 0.087715827 0.79533339 4286262304
0.33514392 0.087679386 0.79500002 4284032542
0.32950267 0.093296356 0.79700005 4284560416
0.33253595 0.093238227 0.79650009 4286592290
0.32929718 0.097553313 0.79650009 4285417265
0.33124977 0.097493559 0.79600006 4286594600
0.32823578 0.10284048 0.79566669 4285881671
0.33147934 0.10224989 0.79525006 4286464044
0.3284789 0.10771032 0.79660004 4286276429
0.33104736 0.10821092 0.79550004 4287190081
0.32909751 0.11259101 0.79600006 4287061319
0.32930714 0.11697936 0.79650009 4287522130
0.32848972 0.12282079 0.79660004 4286798665
0.33234793 0.1223025 0.79600006 4287122492
0.32838979 0.12733173 0.79600006 4287061837
0.33224916 0.12765595 0.79575008 4286923316
0.32762122 0.13184024 0.79500002 4286005036
0.33127809 0.13200995 0.79600006 4287381038
0.32837325 0.13677478 0.79550004 4286137390
0.33114699 0.13734567 0.79566669 4287053871
0.33108631 0.14271173 0.79550004 4288316021
0.32774532 0.14697394 0.79525006 4286938484
0.33109409 0.14702487 0.79550004 4288054394
0.32887092 0.15238221 0.79533339 4287991690
0.33089235 0.1501673 0.79500002 4288318341
0.32802227 0.15734923 0.79500002 4287333250
0.3309117 0.15879357 0.79500002 4285815648
0.32875708 0.16310218 0.79500002 4286681751
0.33092278 0.16310777 0.79500002 4286484630
0.33179829 0.1682144 0.79533339 4286812577
0.32879767 0.17712745 0.79500002 4285891988
0.33169046 0.17749722 0.79500002 4285826969
0.3288165 0.18252449 0.79500002 4285826453
0.33163044 0.18205152 0.79525006 4285236119
0.32926407 0.19140367 0.79600006 4285365896
0.33056611 0.19369331 0.79650003 4285102729
0.32970688 0.19814286 0.79700005 4283918198
0.33112848 0.19748279 0.79650003 4285037450
0.32972825 0.20247717 0.79700011 4282997348
0.33248001 0.20325866 0.79575002 4285103761
0.32913619 0.20750505 0.79550004 4282142036
0.33151454 0.20656531 0.79600006 4285694863
0.32462314 0.21492271 0.79500002 4285562242
0.32937419 0.21305177 0.79600006 4282602586
0.33186278 0.21280222 0.79500002 4285103240
0.3231377 0.2175303 0.7966668 4285233021
0.32525471 0.21858114 0.79650009 4285430397
0.3326219 0.21785907 0.79500002 4284577155
0.32230243 0.22286658 0.79560006 4285035383
0.32547879 0.22197284 0.79700005 4285298554
0.32033858 0.225719 0.79500002 4285232751
0.32827359 0.22706793 0.79575002 4283917413
0.32790563 0.23101687 0.79566669 4282733121
0.33395845 0.27694675 0.79500002 4280109094
0.37844294 -0.024546312 0.80200005 4279703045
0.38521951 -0.022707827 0.81400001 4279900425
0.39094165 -0.024857106 0.81200004 4279571208
