# .PCD v0.7 - Point Cloud Data file format
VERSION 0.7
FIELDS x y z rgba
SIZE 4 4 4 4
TYPE F F F U
COUNT 1 1 1 1
WIDTH 1090
HEIGHT 1
VIEWPOINT 0 0 0 1 0 0 0
POINTS 1090
DATA ascii
0.29993311 0.14571455 0.75000006 4287795858
0.37470415 0.17083645 0.75100005 4289049515
0.30494857 0.19101585 0.75200003 4285758328
0.30536321 0.19331677 0.75300002 4287337360
0.30497709 0.19714956 0.75200003 4285952106
0.37453729 0.20451361 0.75400001 4289837996
0.36238971 -0.025224201 0.75700003 4279637769
0.31746137 0.054665565 0.75550008 4287204759
0.3219828 0.054738522 0.75650001 4287073174
0.32718837 0.054752085 0.75666666 4288060583
0.33144489 0.054777939 0.75700003 4287535010
0.33923125 0.052662078 0.75600004 4287666859
0.34219292 0.052802987 0.75800002 4287338149
0.36394382 0.056939952 0.75800002 4281805105
0.37184826 0.06287767 0.75500005 4289507757
0.30395776 0.073039107 0.75500005 4285084992
0.37447733 0.081432693 0.75600004 4289442732
0.3781547 0.10444076 0.75900006 4289376938
0.30310926 0.11234672 0.75800002 4286014315
0.30312139 0.13699517 0.75800002 4287794314
0.37717563 0.16990893 0.75600004 4289049515
0.30776146 0.18660614 0.75900006 4285758583
0.37587446 0.1949515 0.75700003 4289640617
0.30658939 0.19614242 0.75600004 4287139723
0.38411364 -0.010952802 0.76300001 4282138417
0.33482432 0.054996137 0.76000005 4287863977
0.31049615 0.057125613 0.76100004 4285419609
0.34815422 0.055150554 0.76200002 4287337117
0.35950333 0.057378992 0.76400006 4286612876
0.36097765 0.057120852 0.76050007 4285886584
0.37221128 0.059165623 0.76000005 4286214257
0.30924633 0.061410286 0.76300001 4286590781
0.37480846 0.065442152 0.76100004 4290229938
0.30717805 0.075880051 0.76300001 4284300359
0.37745672 0.084147707 0.76200002 4289376939
0.38015825 0.10706469 0.76300001 4288785055
0.30552268 0.14015037 0.76400006 4287138181
0.37783173 0.19389752 0.76100004 4289706157
0.30985415 0.20237349 0.76400006 4287196010
0.37804711 0.2085005 0.76100004 4289837742
0.30672356 0.22851001 0.76100004 4285288770
0.38122538 0.23817764 0.76200002 4291347385
0.31867474 0.25458178 0.76400006 4286479725
0.37515345 0.25489557 0.76200002 4290559668
0.31810153 0.25826189 0.76250005 4282275391
0.37110484 0.26535758 0.76200002 4290040250
0.32919535 0.27960318 0.76300001 4281227846
0.36813295 -0.023539407 0.76900005 4279768841
0.39988121 -0.0089582792 0.76900005 4280690711
0.33910748 0.0553592 0.76500005 4288388780
0.34297287 0.055650063 0.76900005 4287402139
0.34789345 0.055438053 0.76600003 4288521391
0.35625419 0.057523552 0.76600003 4285954691
0.37450606 0.059861865 0.76900005 4285481288
0.37613389 0.061871842 0.76800001 4286739057
0.37776899 0.068039291 0.76700002 4288848544
0.37827301 0.072295181 0.76800007 4286479739
0.30919051 0.07845787 0.76800001 4284565075
0.3787778 0.076564088 0.76900005 4285424992
0.37994114 0.086782284 0.76700002 4289177762
0.37997431 0.095113494 0.76700002 4284376157
0.38073099 0.098431177 0.76850003 4282995018
0.38216221 0.10971055 0.76700002 4289179299
0.38242853 0.11291348 0.76750004 4288389268
0.30630872 0.11560784 0.76600003 4285030757
0.38319993 0.11731347 0.76900005 4288191118
0.30671874 0.13654296 0.76700002 4285293669
0.3834711 0.15394732 0.76900005 4287404436
0.38218033 0.15759146 0.76633334 4288916902
0.38355091 0.16233556 0.76900005 4287142809
0.38159835 0.165666 0.76500005 4288918443
0.30926377 0.17212948 0.76800001 4287139977
0.3096779 0.1765279 0.76900005 4286284925
0.31139508 0.18464629 0.76800001 4284969326
0.31099731 0.1864893 0.76700002 4285824376
0.37978923 0.19282219 0.76500005 4289771182
0.38025784 0.19097763 0.76600003 4289902769
0.38155827 0.21252656 0.76800001 4289772207
0.38389349 0.22311725 0.76800001 4289574822
0.30991754 0.22671837 0.76900005 4283981905
0.38432494 0.23278707 0.76850003 4285430122
0.38316032 0.23625618 0.76600003 4287731079
0.31345698 0.24291348 0.76700002 4288102983
0.31562918 0.24922933 0.76700002 4288765793
0.38120416 0.24573158 0.76600003 4290355870
0.37756658 0.25444451 0.76700002 4292527806
0.38062322 0.25090006 0.76900005 4290028959
0.32081288 0.26046717 0.76900005 4282143549
0.37446272 0.26566198 0.76900005 4282476366
0.37201777 0.27379227 0.76800001 4286883983
0.36947668 0.27764615 0.76700002 4285633663
0.37004656 -0.021566378 0.77300006 4279768841
0.31789559 0.058101173 0.77400005 4285157465
0.34701353 0.055797204 0.77100003 4287731618
0.35354716 0.057930321 0.77150005 4285954692
0.31329894 0.064309299 0.77300006 4286198078
0.35892296 0.060221121 0.77400005 4287717740
0.36315367 0.060226969 0.77400005 4286333772
0.36715299 0.060194626 0.77350008 4286004549
0.37204799 0.060139071 0.77266675 4284820018
0.3771182 0.064121887 0.77000004 4286337619
0.37859511 0.067518845 0.773 4285220167
0.37774882 0.078317665 0.77266669 4284504406
0.31080025 0.082004979 0.77200007 4284502112
0.36425138 0.081217222 0.77400005 4283192146
0.36708042 0.081923611 0.77399999 4284244834
0.37923551 0.082377218 0.7713334 4283056959
0.36426121 0.085415952 0.77400005 4281942077
0.36744288 0.085423917 0.77400005 4281876285
0.38135436 0.087344363 0.77200001 4285161820
0.38219064 0.092528045 0.77149999 4287070587
0.38130763 0.095972829 0.77400005 4279834644
0.38198864 0.10294086 0.77100003 4283257417
0.38324749 0.10747574 0.77350008 4284044616
0.36860362 0.11483725 0.77400005 4283723911
0.38351116 0.11070076 0.77400005 4285354563
0.3083086 0.11845146 0.77100003 4287596424
0.30890939 0.12182362 0.77250004 4286806651
0.35967219 0.12305064 0.77300006 4282870148
0.36332369 0.12322275 0.77400005 4283855499
0.38406238 0.12280804 0.77066678 4287267445
0.3087126 0.1290644 0.77200001 4287994004
0.36203527 0.12523945 0.77350008 4283789963
0.38451165 0.12818581 0.77149999 4286870118
0.30804873 0.13296004 0.77033335 4287005569
0.38454053 0.13238567 0.77149999 4286216556
0.38416338 0.13748527 0.77066678 4284706155
0.38486019 0.14192787 0.77200001 4284114794
0.38587409 0.14440349 0.77400005 4284244327
0.38465366 0.14708869 0.77149999 4284705898
0.38444036 0.15119562 0.77100003 4286878607
0.31085467 0.1646474 0.77200001 4285561465
0.31166703 0.16822372 0.77400005 4286350208
0.38395679 0.16970548 0.77400005 4285103230
0.31047741 0.17489433 0.77100003 4286482047
0.38349414 0.17265129 0.77300006 4285695110
0.38354033 0.17687431 0.773 4285629058
0.31382042 0.18398671 0.77400005 4286877064
0.38407251 0.18027335 0.77400005 4286089351
0.38294727 0.18918055 0.77150005 4286811012
0.3819519 0.20234877 0.77350008 4286944139
0.38225985 0.20672247 0.77400005 4286943369
0.38407698 0.21603286 0.77300006 4288390554
0.31111196 0.22549854 0.77200001 4286548346
0.38493225 0.22581753 0.77000004 4287929997
0.38597196 0.22852971 0.77200001 4286350965
0.31154469 0.23000523 0.77300006 4282861879
0.36729708 0.23236382 0.77350008 4284442461
0.37701431 0.23199263 0.77350003 4283192396
0.38228536 0.23269854 0.77316672 4282732099
0.38551265 0.2303575 0.77100003 4285758830
0.36867541 0.23625442 0.77400005 4284310620
0.37268424 0.23880617 0.77399999 4285626481
0.37681723 0.23665082 0.77366668 4285231979
0.38281584 0.23690721 0.77320009 4283520844
0.36250091 0.24208105 0.77366668 4285296740
0.36679214 0.24209189 0.77300006 4284507742
0.37299618 0.24264245 0.77375007 4284639842
0.37612671 0.24262321 0.77350008 4284113498
0.38432455 0.24248201 0.77250004 4283710260
0.31848752 0.24938552 0.77400005 4287580235
0.35482866 0.24667013 0.77400005 4287245617
0.3582592 0.24626686 0.77366668 4287114545
0.36270818 0.24823989 0.77350008 4288714132
0.36592984 0.2472315 0.77350003 4287598988
0.37428176 0.24700812 0.77400005 4287599759
0.3764534 0.24705023 0.77400005 4287599759
0.38332522 0.24672812 0.77250004 4284823092
0.36355004 0.25214171 0.77400005 4289429122
0.36677617 0.25113416 0.77400005 4288050295
0.37434506 0.25021151 0.77400005 4287395962
0.3765181 0.25025487 0.77400005 4285026386
0.38151395 0.25218165 0.77300006 4287056971
0.37790108 0.25818947 0.77200007 4286273104
0.37587303 0.26455796 0.77200001 4283655762
0.32347172 0.26929638 0.77000004 4281620543
0.374118 0.27217621 0.77250004 4279913005
0.32871845 0.27856568 0.77200001 4280636992
0.37279436 0.27802831 0.77400005 4280505912
0.33175364 0.28145894 0.77400005 4280703812
0.36798507 0.28204525 0.77050006 4280900930
0.36428562 0.28642109 0.77400005 4282283356
0.32205868 0.058476325 0.77900004 4284961627
0.3283914 0.058476564 0.77900004 4288254621
0.33204618 0.05837734 0.77766675 4288452001
0.33809093 0.058329571 0.77700001 4289308595
0.34270942 0.058219824 0.77550006 4287203989
0.35243714 0.058264948 0.77600002 4285494141
0.31661597 0.060353905 0.77600002 4285999414
0.35741127 0.062545225 0.77683336 4286394170
0.36290807 0.063699007 0.77800006 4285801005
0.36713988 0.063381948 0.7766 4285867054
0.37233028 0.063336566 0.77766675 4285275685
0.37734061 0.063645206 0.77700001 4284951343
0.3157303 0.066918865 0.77900004 4286000953
0.36200568 0.067944646 0.77833337 4286731615
0.36784151 0.067853846 0.77716666 4286274660
0.37297818 0.06802237 0.77900004 4285945695
0.37914902 0.067992084 0.77850008 4286604393
0.31572944 0.071139656 0.77900004 4284886069
0.36201215 0.072165646 0.77833337 4285883500
0.36743981 0.071860984 0.77719998 4285559929
0.37264764 0.072311997 0.77740002 4284573033
0.37784722 0.072166502 0.778 4284177759
0.38007531 0.07199049 0.77600002 4283973440
0.36207345 0.07745222 0.77844453 4284633688
0.36730975 0.077650182 0.7772857 4284376162
0.37248674 0.077106327 0.77737504 4283520598
0.37774593 0.076905392 0.77557147 4282925634
0.35808238 0.08172477 0.77900004 4284559681
0.36231694 0.082543023 0.7766667 4284965993
0.36897451 0.08343453 0.77500004 4286876554
0.37240213 0.082444832 0.77550006 4284376164
0.3772521 0.082237288 0.77540004 4283717460
0.31321502 0.086857647 0.778 4283913827
0.36223346 0.087870345 0.77722228 4284638054
0.36795205 0.088635586 0.77639997 4285692278
0.37253803 0.087364316 0.7762 4283981660
0.37794551 0.086603805 0.77680004 4283191629
0.38119072 0.087789148 0.77600002 4283779396
0.35877126 0.092663348 0.7786001 4282599783
0.36185852 0.092480622 0.77700001 4285495933
0.36739561 0.092918254 0.77700001 4285890427
0.37319645 0.092892975 0.7778334 4286811273
0.378149 0.092282891 0.77850008 4286152831
0.38202488 0.092199333 0.77766663 4284241747
0.3589493 0.097508661 0.77850008 4282603366
0.36274371 0.097394273 0.77750003 4283920716
0.36731464 0.097530626 0.77680004 4283789121
0.37269625 0.096988857 0.77825004 4283524168
0.37747782 0.097763479 0.77840006 4281154080
0.38103536 0.097661354 0.77633333 4280032537
0.31361657 0.10279617 0.77900004 4283062116
0.35895997 0.10173213 0.77850002 4283000680
0.3622027 0.10293984 0.7772857 4283066469
0.36753619 0.10253163 0.77633333 4283000157
0.3729746 0.10305698 0.77700007 4282997330
0.37520921 0.10079021 0.77900004 4283985980
0.38378859 0.10082401 0.77900004 4279967512
0.36300883 0.10801171 0.77800006 4281620092
0.36745331 0.10739602 0.77725005 4281554296
0.37320566 0.10791149 0.77700001 4282144107
0.37784952 0.10745957 0.77820003 4283772445
0.38262486 0.10819028 0.77875006 4283836954
0.35876018 0.11222087 0.77800006 4281094259
0.36290646 0.11219954 0.77775002 4282936202
0.36717322 0.11221397 0.77775007 4282475135
0.37208909 0.11255649 0.7768572 4282737018
0.37762937 0.11193983 0.77800006 4282602563
0.3828212 0.11249888 0.77780008 4283707421
0.35178453 0.11974103 0.77900004 4281817983
0.3577618 0.11751139 0.77811116 4281159795
0.36273617 0.11790283 0.77780002 4282541184
0.36736163 0.11740279 0.77714294 4283724168
0.37289453 0.11810801 0.77699995 4283591810
0.3777028 0.11796767 0.77780002 4282013287
0.3831695 0.11814343 0.77757138 4282665021
0.38502008 0.11535339 0.77700001 4285819481
0.35741609 0.12231209 0.77640003 4281554808
0.36165759 0.12126896 0.77500004 4283001477
0.36674306 0.12214676 0.77600002 4284315532
0.37236354 0.12273119 0.77733332 4283591812
0.37755364 0.12270515 0.77700001 4281157733
0.38258281 0.12255315 0.7772001 4282725947
0.38506883 0.12380322 0.77700001 4284103219
0.30991074 0.12641582 0.77500004 4286675321
0.35394219 0.1282039 0.77900004 4282409858
0.35756612 0.12751351 0.77683336 4282212478
0.36297852 0.12714313 0.77550006 4283790219
0.36676836 0.12776844 0.77600002 4284250253
0.37227613 0.12727349 0.77800006 4283394947
0.37732047 0.1268445 0.77780002 4281421164
0.38310707 0.12771708 0.77733344 4282594869
0.38508183 0.12591627 0.77700001 4284824875
0.35395354 0.13137588 0.77900004 4282672770
0.35820219 0.13233012 0.77828568 4282080890
0.36302435 0.13227472 0.7778334 4283526789
0.36738238 0.13242246 0.77649999 4285564820
0.3725189 0.13218054 0.77700001 4284052100
0.37785092 0.13229482 0.77750009 4282933880
0.3828505 0.13241065 0.778 4282008383
0.38563305 0.13454412 0.77800006 4284770654
0.35291535 0.13877445 0.77900004 4283724427
0.35790592 0.13813424 0.7782501 4282606719
0.36257735 0.13740678 0.77820003 4283987081
0.36738524 0.13757518 0.7766 4286353047
0.37270847 0.13725197 0.77700001 4284708741
0.37800467 0.13762596 0.77775007 4282867828
0.3859033 0.13780782 0.77850008 4284311655
0.34973267 0.14299245 0.77900004 4284776080
0.3524746 0.14176545 0.77800006 4283790217
0.35738698 0.14230777 0.77649999 4282803841
0.36284339 0.1427497 0.77733344 4283658116
0.36776701 0.14261538 0.77644444 4284446601
0.37282369 0.14253581 0.77583337 4282670710
0.3777495 0.14246233 0.77760005 4281618795
0.38568664 0.14195549 0.77800006 4282931551
0.35316297 0.14681523 0.77900004 4284249994
0.35791203 0.14781009 0.77816677 4283789443
0.36236557 0.14782619 0.77625 4284118663
0.36750939 0.1477771 0.77583337 4283394433
0.3726989 0.14774838 0.77550006 4281882228
0.37799418 0.14725605 0.77833337 4280961896
0.38574493 0.14937072 0.77800006 4284379501
0.35404944 0.15359232 0.77900004 4285301647
0.35702184 0.15245159 0.77850008 4285367692
0.36241466 0.1522896 0.7786001 4286353042
0.3676928 0.1520637 0.77616668 4284971912
0.37260905 0.15171264 0.77600002 4282210676
0.37740594 0.1536403 0.77850008 4281882482
0.38339075 0.15307619 0.77900004 4283788672
0.38527566 0.15235394 0.77700001 4285102970
0.31365892 0.15874507 0.77900004 4286022016
0.34979811 0.15780534 0.77900004 4285235856
0.35285184 0.15775408 0.77866673 4285695889
0.35733712 0.15778355 0.77737498 4286484114
0.36233756 0.15743993 0.77683336 4287272598
0.36666062 0.15733665 0.77616668 4286352016
0.37150598 0.15727367 0.77780002 4283722107
0.37742954 0.15681951 0.77850008 4281553516
0.38340679 0.1573751 0.77749997 4284314748
0.38530314 0.15552992 0.77700001 4285169017
0.31245887 0.16234171 0.77600002 4286285702
0.35409477 0.16206291 0.77900004 4286024081
0.35753763 0.16276383 0.77716666 4286155408
0.36269081 0.16271164 0.77675003 4286812820
0.36673737 0.16263536 0.77625 4285826701
0.37225416 0.16254623 0.77733332 4282736757
0.37767622 0.16207863 0.77828568 4281685360
0.38424361 0.16130239 0.77766675 4284512641
0.3853814 0.16400357 0.77700001 4284972160
0.34984231 0.16627555 0.77900004 4285366926
0.35794759 0.16717152 0.77800006 4285695885
0.36318731 0.16715436 0.77775002 4285695373
0.36772105 0.16681848 0.77600002 4283920254
0.37344384 0.16702209 0.77674997 4282408824
0.37810928 0.16721939 0.77750003 4281817202
0.38247558 0.16778861 0.77833337 4282539631
0.38541269 0.16718295 0.77700001 4284774523
0.31207722 0.17159529 0.77500004 4286350461
0.35361311 0.1723913 0.77780008 4286089872
0.35761648 0.17189623 0.77662504 4286155921
0.36334419 0.17250307 0.77800006 4285432714
0.36832094 0.17222464 0.77775002 4284183684
0.37273985 0.17247942 0.7761429 4283526528
0.37840271 0.17263238 0.77800006 4282803062
0.3825866 0.17155693 0.77775007 4283131507
0.35361832 0.17724752 0.77680004 4286681234
0.35840267 0.17742696 0.77649999 4286286993
0.36291835 0.17757389 0.77700001 4285892492
0.36756375 0.17778134 0.77775007 4285761424
0.37174588 0.17776188 0.77750003 4284446341
0.37653854 0.17803107 0.77850008 4283394684
0.38433862 0.17715894 0.77900004 4284578176
0.35421756 0.1811403 0.77900004 4286944148
0.35749114 0.1817183 0.77833337 4286418578
0.3621141 0.18191749 0.77750009 4286024078
0.36756191 0.18253039 0.77720004 4285761422
0.3714278 0.18182832 0.77675003 4284972169
0.3765806 0.18228082 0.77850008 4283789439
0.38264713 0.18268174 0.7772001 4284445304
0.35768399 0.18674774 0.77866673 4286681234
0.36276025 0.18676732 0.77814287 4285958543
0.36699221 0.18752 0.77680004 4285169801
0.37231839 0.18754978 0.77850008 4284907146
0.37582049 0.18983072 0.77900004 4284644231
0.38464463 0.18686135 0.77500004 4286877064
0.36403474 0.193093 0.77833343 4285826959
0.36761728 0.19242044 0.77833337 4284972681
0.3723743 0.19286464 0.77850008 4284513161
0.37561503 0.19290006 0.77850008 4284512902
0.38378483 0.19275305 0.77750003 4284442469
0.36228892 0.19654262 0.77875006 4286287251
0.36780113 0.197192 0.77900004 4284972681
0.37293318 0.19768758 0.77820003 4284644488
0.3766233 0.19693536 0.77900004 4284710021
0.38311362 0.19768994 0.77600002 4283982686
0.35741213 0.20440197 0.77850008 4286944663
0.36082745 0.20031111 0.77900004 4286615958
0.36832091 0.20247556 0.77883339 4284775303
0.37231046 0.2020376 0.7786001 4284972682
0.37759653 0.20262878 0.77900004 4285629321
0.38030806 0.20266357 0.77900004 4285892233
0.31554303 0.20819826 0.77800006 4285490271
0.35715854 0.20727791 0.77866673 4287010197
0.36724848 0.20772919 0.77780002 4286286993
0.37146792 0.20774961 0.77850008 4286024079
0.36482823 0.21392451 0.77800006 4287206288
0.36729544 0.21155968 0.77780002 4286812304
0.37176126 0.21214852 0.77900004 4286549389
0.38307428 0.21141928 0.77700001 4286351232
0.31306025 0.21637708 0.77700001 4286940800
0.35772368 0.21756789 0.77840006 4287008652
0.36250147 0.2173893 0.77812505 4287271823
0.36808348 0.21726982 0.77840006 4286680971
0.3722139 0.21814367 0.77750003 4286220680
0.37658772 0.21694738 0.77875006 4285628542
0.3848429 0.21553646 0.77900004 4286153853
0.38609993 0.21928516 0.77700001 4287535247
0.31350213 0.22300895 0.778 4285495659
0.35805359 0.22290026 0.77866673 4286285699
0.36246565 0.2222278 0.77733344 4286745736
0.36782789 0.22227593 0.77725005 4286614664
0.37240154 0.22231714 0.77639997 4286417284
0.37685627 0.22261719 0.77800006 4286022268
0.38062215 0.22402352 0.77900004 4286021753
0.38540918 0.22205824 0.77550006 4285956213
0.35436872 0.2277329 0.77833337 4286023037
0.35676101 0.22723681 0.77650005 4286219904
0.36209568 0.2273521 0.77771425 4286482561
0.36721557 0.22793412 0.77750003 4286087289
0.37269503 0.22772944 0.77649999 4285889654
0.37773773 0.22780025 0.77740008 4285363566
0.38183224 0.22884615 0.77833337 4283521105
0.38536772 0.22738795 0.77700007 4285034854
0.35451305 0.23311526 0.77850008 4282799423
0.35733801 0.23226532 0.7762 4283128385
0.36223397 0.23316705 0.77649999 4282601277
0.3656857 0.23176549 0.77700007 4283061319
0.37285328 0.23220539 0.77520001 4283718484
0.38460201 0.23022649 0.77800006 4282271294
0.38533422 0.23151185 0.77500004 4280232475
0.34745076 0.23698513 0.77866673 4280037144
0.35317165 0.23698056 0.77900004 4280431646
0.35777286 0.23719415 0.77700001 4280300318
0.36261922 0.23747087 0.77585709 4282536255
0.366593 0.23818997 0.77525008 4285627248
0.37295073 0.23715633 0.77500004 4285363309
0.37838075 0.23859645 0.7753334 4284244571
0.38136947 0.23905745 0.77550006 4283191882
0.35210744 0.24243437 0.77766669 4285284912
0.35772738 0.24238747 0.776375 4285024565
0.36129296 0.24221447 0.77649999 4282395938
0.37036398 0.24404265 0.77500004 4286679426
0.37903082 0.24313587 0.77500004 4284771427
0.3830148 0.24260075 0.77649999 4285099878
0.34974352 0.24859558 0.77700001 4287705142
0.35185868 0.2470341 0.77600008 4287311153
0.35746095 0.2480886 0.77500004 4287377204
0.3617624 0.24709366 0.77500004 4286536537
0.36827427 0.24827398 0.77500004 4286415226
0.37162748 0.24734598 0.77525008 4287600274
0.37958372 0.24666074 0.77600002 4285692530
0.38280165 0.24752358 0.77720004 4288321940
0.35274094 0.25188479 0.77780002 4288625732
0.35777411 0.25207114 0.77633333 4289817713
0.36234084 0.25382358 0.77600002 4290144626
0.36765894 0.25395927 0.77500004 4287245624
0.37253401 0.25196257 0.77560008 4287846752
0.37851703 0.25346318 0.77500004 4286917681
0.38146988 0.2519069 0.77666664 4284819499
0.35694936 0.25626007 0.77833337 4288359995
0.36201566 0.25751108 0.77750003 4288491324
0.36747149 0.25868511 0.77749997 4288557374
0.37287471 0.2566458 0.77750003 4288163383
0.37669763 0.25742319 0.77633333 4288427835
0.35822672 0.2622208 0.77900004 4288166467
0.36315778 0.26231232 0.77900004 4288168780
0.36747742 0.2629236 0.77733332 4286329654
0.37299907 0.26175109 0.77800006 4287180594
0.37765646 0.26278022 0.77733332 4284756525
0.3269971 0.26905805 0.77850008 4281423676
0.35961151 0.26654395 0.77900004 4283916373
0.36700439 0.26652384 0.77850008 4288913046
0.37051782 0.26676324 0.77900004 4288518542
0.37713692 0.26906571 0.77900004 4280238888
0.37573516 0.27018124 0.77600002 4280174635
0.32820308 0.27569786 0.77600002 4281556805
0.37514889 0.27766001 0.77900004 4280440373
0.36996633 0.28331763 0.77700001 4281099074
0.37210229 0.28121156 0.77700001 4281427015
0.36179164 0.28779626 0.77800006 4282414428
0.36783144 0.2854242 0.77700001 4280705346
0.37435383 -0.019697627 0.78200006 4279703562
0.32458499 0.058551341 0.78000003 4287266439
0.32669857 0.05855142 0.78000003 4287991189
0.34788036 0.058559828 0.78000003 4286872968
0.31987968 0.06310007 0.78400004 4286393402
0.33794457 0.060977958 0.78400004 4285009438
0.3441143 0.060942203 0.78350008 4285274150
0.34708965 0.061967671 0.78299999 4286193967
0.3547101 0.060757115 0.78100002 4287384148
0.35613117 0.063580222 0.78100008 4285995301
0.37345058 0.064936511 0.78000003 4285208867
0.31613514 0.069117874 0.78000003 4285804602
0.35262635 0.066539519 0.78266668 4285930791
0.35684672 0.067815542 0.78099996 4285668392
0.3766439 0.067515202 0.78039998 4285680981
0.31613433 0.073344074 0.78000003 4284756025
0.35746065 0.072526649 0.78233337 4285406763
0.31734985 0.075747401 0.78300005 4285084992
0.34541368 0.077978581 0.78400004 4284949809
0.35473245 0.078751519 0.78100002 4284753206
0.35753441 0.077406548 0.78114301 4284884018
0.34826359 0.081523232 0.7840001 4284231235
0.35473731 0.081927449 0.78100002 4284493636
0.35675633 0.083492868 0.78075004 4284233547
0.36067748 0.083948694 0.78000003 4285092960
0.35680071 0.087206088 0.78083342 4285356396
0.31442213 0.092480749 0.78099996 4283980909
0.34818971 0.093800731 0.78299999 4281613665
0.35589704 0.092537411 0.78116673 4282665833
0.31462303 0.09783227 0.78150004 4282535778
0.348308 0.098077908 0.78324997 4280760931
0.35272473 0.098042615 0.78120005 4281353837
0.35667139 0.097751021 0.78050005 4282143348
0.31401911 0.10081494 0.78000003 4282735467
0.34330902 0.10241403 0.78400004 4280104545
0.34713629 0.10229032 0.78299999 4280104802
0.35264316 0.10204131 0.78100008 4281026929
0.35668123 0.10198482 0.78050005 4281947767
0.37784016 0.10198644 0.78000003 4283648548
0.38190207 0.1022661 0.78040004 4282663981
0.31401923 0.10504134 0.78000003 4284969077
0.34775716 0.10790284 0.78300005 4281685110
0.35240385 0.10726124 0.7804445 4281094005
0.35776126 0.10728168 0.78049999 4281225845
0.36096838 0.10834962 0.78050005 4281028470
0.36929369 0.10936595 0.78000003 4281554550
0.37143564 0.10937386 0.78000003 4281948279
0.3826398 0.1053162 0.78099996 4283250983
0.34332466 0.11197907 0.78400004 4285826709
0.34671375 0.11276209 0.78200006 4283723142
0.35236645 0.11253703 0.78033334 4281422971
0.35670906 0.1125713 0.78050005 4281489022
0.38003835 0.11364672 0.78000003 4283064137
0.34333262 0.11623083 0.78400004 4285630359
0.34683806 0.11739396 0.78157145 4283065986
0.35228598 0.11753298 0.78012508 4281554812
0.36503637 0.11570259 0.78000003 4284777631
0.38112405 0.11577114 0.78000003 4282074414
0.34256825 0.12290762 0.78320009 4283851636
0.34667191 0.12228358 0.78185719 4281751159
0.35262227 0.12320125 0.78083342 4281883776
0.35651702 0.12414151 0.78000003 4281291638
0.34365791 0.12764165 0.78225005 4282407287
0.34726307 0.12740888 0.78075004 4281357685
0.35237321 0.1272852 0.78120005 4282344578
0.35652441 0.12625869 0.78000003 4281818236
0.34336895 0.13217916 0.78400004 4283327093
0.34700456 0.13228492 0.78185719 4282540928
0.35179755 0.13294549 0.78028578 4283067014
0.35655636 0.13472922 0.78000003 4282343804
0.34690011 0.13757764 0.782875 4284184459
0.35198599 0.13744584 0.78049999 4283592841
0.35656503 0.13684733 0.78000003 4282343804
0.38340902 0.13805178 0.78000003 4284840066
0.34339622 0.14175202 0.78400004 4283327345
0.34709039 0.1425873 0.78266674 4284183942
0.35017335 0.14105807 0.78000003 4284710802
0.38343874 0.14229703 0.78000003 4283196791
0.3472546 0.14690001 0.78299999 4283855490
0.35118514 0.1481356 0.78100002 4284578958
0.35661241 0.14744119 0.78000003 4283657860
0.38237119 0.14842878 0.78066665 4281685100
0.38587683 0.14665376 0.78050005 4282670701
0.3156603 0.1523232 0.7840001 4286677377
0.34342837 0.15132859 0.78400004 4283459444
0.34776551 0.15204704 0.78350002 4283987847
0.35265145 0.1528182 0.78160006 4284973712
0.36307424 0.15383594 0.78000003 4287010969
0.3781229 0.15287426 0.78000003 4281225067
0.3813515 0.15183669 0.78000003 4281947504
0.31405616 0.15577596 0.78000003 4286087041
0.348147 0.15743627 0.78250003 4284381835
0.35068589 0.15608819 0.78100002 4284842127
0.363087 0.15595722 0.78000003 4287338390
0.37708542 0.15817592 0.78000003 4281750640
0.38032264 0.15820144 0.78000003 4281619565
0.34736618 0.16288991 0.78171432 4283854202
0.35139742 0.16280304 0.78059995 4285827477
0.35501605 0.1646028 0.78100002 4285498251
0.383066 0.16300716 0.78000003 4282539886
0.34327444 0.16719177 0.78350008 4283721580
0.34697706 0.16757417 0.78119999 4285301131
0.35286814 0.16777638 0.78000003 4285432717
0.38472357 0.1667437 0.78000003 4282802543
0.34714982 0.17231931 0.78250003 4286483859
0.35162401 0.17297052 0.78049999 4286287251
0.34789196 0.1776011 0.78350002 4285364344
0.35134315 0.177858 0.78100002 4286812563
0.38199827 0.17787218 0.78039998 4283197302
0.31624594 0.1832948 0.78000003 4286087548
0.34699827 0.18255244 0.78271431 4287074442
0.3521378 0.18276368 0.7815001 4287272853
0.35598904 0.18362279 0.78050005 4286812819
0.38361201 0.18312974 0.78033334 4283919480
0.34731403 0.18726104 0.78266668 4286482304
0.35228062 0.18707874 0.78175008 4287666582
0.35624552 0.18746352 0.78100002 4287009683
0.3622669 0.1899361 0.78000003 4286155408
0.37759292 0.18701036 0.78050005 4284249474
0.38241974 0.18729733 0.78150004 4284445821
0.38543385 0.18721466 0.78100002 4284839031
0.32004672 0.19489168 0.78400004 4285758583
0.34363121 0.19182007 0.78400004 4286482047
0.34776676 0.19240683 0.78299999 4287205771
0.35228452 0.19238441 0.7816667 4287798168
0.35759294 0.19265239 0.7815001 4287009685
0.36193383 0.19276969 0.78000003 4286090129
0.36985952 0.19426636 0.78000003 4284578438
0.37865534 0.19231105 0.78033334 4284577920
0.38262871 0.19217896 0.78085721 4285299840
0.31964779 0.19677125 0.78300005 4286021755
0.34782839 0.19710428 0.78366679 4287469716
0.35236913 0.19787842 0.78320009 4287206806
0.35740796 0.19758762 0.78100008 4286747028
0.36342597 0.1984601 0.78000003 4286550166
0.36774394 0.19850449 0.78000003 4285037959
0.37856981 0.19862738 0.78000003 4285103491
0.38205823 0.19772811 0.78049999 4285563268
0.34928289 0.20203 0.78200006 4286614925
0.35228887 0.20192918 0.7815001 4286944406
0.3574473 0.20184939 0.78100008 4286681751
0.36270472 0.20318918 0.7802 4286615958
0.36562976 0.20274353 0.78000003 4285761423
0.3743113 0.20497578 0.78000003 4285629323
0.3825632 0.20240317 0.78066665 4285629061
0.34919873 0.20699908 0.78333336 4287338392
0.35297647 0.20686692 0.78133339 4287010199
0.35678896 0.207883 0.78100008 4286944147
0.36256513 0.20810363 0.78025001 4286878870
0.36567721 0.20700705 0.78000003 4286484372
0.37483191 0.20844465 0.78100002 4286549650
0.37796369 0.20789745 0.78120005 4286615185
0.38236058 0.20774758 0.78039998 4286154369
0.31636557 0.21085574 0.78000003 4287399809
0.35210761 0.21261191 0.78328568 4287141012
0.35748091 0.21246926 0.78083342 4287074961
0.362497 0.21230228 0.78000003 4287272339
0.37488833 0.21272162 0.78100002 4286286217
0.37827182 0.21283355 0.78125 4285891202
0.38215008 0.21317901 0.78099996 4285759868
0.31428149 0.21933609 0.78000003 4287072641
0.3476322 0.21718097 0.78283334 4286745992
0.35277182 0.2170724 0.78225005 4286811530
0.35615981 0.21641289 0.78099996 4286811531
0.37229124 0.21633768 0.78000003 4286352265
0.37884772 0.21892466 0.78000003 4285365368
0.38257331 0.21711232 0.78100002 4285299317
0.38586503 0.21823372 0.78100002 4285627509
0.31430781 0.22358471 0.78000003 4281482285
0.34808928 0.22288078 0.78312504 4286154112
0.35326898 0.22163266 0.78325003 4286417542
0.35615885 0.22217746 0.78125 4286351494
0.37889686 0.22213522 0.78000003 4285693304
0.38277099 0.22198787 0.78079998 4285693304
0.38577095 0.22242738 0.78066665 4285495922
0.34394777 0.22924353 0.78400004 4285890167
0.34737501 0.22763687 0.78200006 4285956475
0.35123444 0.22632457 0.78100002 4285759612
0.38223761 0.22647205 0.78000003 4286350461
0.34354365 0.232163 0.78300005 4283326530
0.34699106 0.23268619 0.78100008 4283391812
0.35159543 0.23269145 0.78083342 4283917648
0.31817651 0.23971172 0.78400004 4286987325
0.33971557 0.23777427 0.78400004 4279905812
0.34306148 0.23759376 0.78237504 4279773968
0.34596252 0.23694877 0.78100002 4279577102
0.3520245 0.2388669 0.78000003 4280300061
0.31657094 0.24061817 0.78000003 4287973706
0.33976382 0.24206571 0.78400004 4287918428
0.34322795 0.24257098 0.78200006 4286009661
0.34807926 0.24225126 0.78074998 4285551678
0.3443498 0.24579887 0.78200006 4287380545
0.34811962 0.24748135 0.78150004 4288695378
0.34854582 0.25077292 0.78400004 4291133320
0.35074937 0.25386289 0.78233337 4288229691
0.32480639 0.25692371 0.78400004 4286070847
0.34777799 0.25783232 0.78366679 4288621881
0.35210991 0.25772008 0.78200006 4288622653
0.35665303 0.2582233 0.78000003 4288557373
0.34874082 0.26370317 0.78400004 4288108124
0.35230005 0.26331249 0.78100002 4286984754
0.35670596 0.2625497 0.78140002 4288300365
0.36219054 0.26369745 0.78000003 4287712337
0.3290388 0.26648134 0.78350008 4280896304
0.34878397 0.26718464 0.78150004 4288656543
0.35180289 0.26599208 0.78100002 4287200624
0.35680687 0.26682502 0.78000003 4286549628
0.36299437 0.26843697 0.78059995 4287073921
0.36799261 0.2693674 0.78050005 4280631081
0.37306622 0.26889628 0.78200006 4284114003
0.37741473 0.26682955 0.78200006 4283845952
0.35869426 0.27209839 0.78275007 4280699183
0.36266309 0.27265319 0.7816 4280437553
0.36767304 0.27310902 0.78200006 4280569394
0.37308046 0.27385035 0.78320009 4280307245
0.37634504 0.27266657 0.78333336 4280699436
0.33028492 0.27532402 0.78100002 4280834363
0.35859734 0.27776405 0.78350008 4280834107
0.36275083 0.27767709 0.78300005 4280965436
0.36714065 0.2777707 0.78299999 4281162812
0.37233981 0.27860326 0.78350008 4280374065
0.37567744 0.27670884 0.78250003 4280439086
0.35866448 0.28101647 0.78350008 4286953118
0.36111146 0.28232777 0.78400004 4284123764
0.36805624 0.28214693 0.78171438 4281624136
0.3723557 0.28105631 0.78066665 4280703288
0.3404355 0.28733832 0.78400004 4280835398
0.34832498 0.28893825 0.78200006 4282680679
0.3509571 0.28935292 0.78300005 4280048961
0.35794908 0.28887144 0.78275001 4282282327
0.36207554 0.28651655 0.78350008 4280836421
0.36722264 0.28636825 0.78275001 4280967748
0.37123409 -0.026286362 0.78900003 4279965704
0.32241324 0.061053589 0.78500003 4285998644
0.3338984 0.061209686 0.78700006 4285340200
0.33731389 0.06275101 0.78625005 4285799209
0.34228536 0.062475547 0.78500003 4285470758
0.35276791 0.062357269 0.7852 4286128944
0.32191938 0.065640002 0.78900003 4286459965
0.33432487 0.06982743 0.78800005 4285932074
0.33738875 0.067664422 0.78766674 4285996841
0.34244668 0.067611136 0.78700006 4285931046
0.34742841 0.067543618 0.78616673 4285865511
0.35056344 0.067532443 0.78600007 4285931306
0.33903316 0.072055526 0.78900003 4285735212
0.34273961 0.073003925 0.78766674 4285669676
0.34769121 0.072922304 0.78675008 4285801261
0.35056862 0.072856158 0.78600001 4285669932
0.31937602 0.078365877 0.78800005 4284300359
0.34266925 0.077255838 0.78750008 4285146418
0.34757277 0.076726533 0.7856667 4285080623
0.35012716 0.077018693 0.78500003 4285015087
0.31978098 0.08060281 0.78900003 4284301903
0.33809641 0.083151415 0.78880006 4284435038
0.34283254 0.082298398 0.78725004 4284297028
0.34714118 0.082760051 0.78500003 4284429127
0.35013348 0.08233802 0.78500003 4284691015
0.33797055 0.08702074 0.78900003 4283252056
0.34253201 0.087889872 0.78716677 4283186007
0.34693325 0.087653548 0.78500003 4283317337
0.35014057 0.087657727 0.78500003 4283185751
0.34261063 0.092177369 0.78733343 4281677400
0.34672877 0.091593571 0.7853334 4282072158
0.35014519 0.090849742 0.78500003 4282269278
0.34312057 0.097845115 0.78787506 4280890975
0.34617078 0.097309321 0.7856667 4280628318
0.34151664 0.10283451 0.78725004 4280761446
0.31603241 0.10784148 0.78500003 4286087042
0.34260371 0.10746829 0.78657144 4283722625
0.34589225 0.10680458 0.78500003 4281355887
0.31643566 0.11223707 0.78600001 4285758592
0.33812526 0.11308106 0.78880006 4285629065
0.34175748 0.11266585 0.78671438 4285497736
0.31704086 0.11778709 0.78750002 4285619814
0.33907354 0.11742713 0.78733343 4283656309
0.34195974 0.11808413 0.78575003 4284971914
0.33916527 0.12251574 0.78620005 4285949554
0.3427138 0.12276342 0.78500003 4283980399
0.33909202 0.12745701 0.78775007 4285620841
0.34123114 0.12854666 0.7856667 4285949293
0.33888984 0.13292325 0.78850007 4285754479
0.34156972 0.13271947 0.78725004 4285753968
0.33925819 0.13812238 0.78766674 4286611584
0.34243423 0.13759738 0.78612506 4285627012
0.31725779 0.1424192 0.78800005 4286543992
0.33845049 0.14235359 0.78742868 4286081133
0.34240982 0.14334881 0.78500003 4285096302
0.31665978 0.14747609 0.78650004 4285755245
0.34250262 0.14759624 0.78683335 4286809740
0.33743808 0.15304813 0.78750002 4284175705
0.34187433 0.15280402 0.78616667 4285887357
0.34602487 0.1547271 0.78500003 4283856005
0.33916819 0.15655535 0.78900003 4284311923
0.34193256 0.15767874 0.78614289 4284313983
0.3460381 0.15792525 0.78500003 4283987077
0.3391867 0.16191044 0.78900003 4283984496
0.34212291 0.16234402 0.78583336 4283787892
0.34605667 0.16219026 0.78500003 4283591801
0.31903613 0.16785125 0.78700006 4285496188
0.33802754 0.16801575 0.78750002 4286022786
0.3413589 0.1679979 0.78566676 4284970873
0.31985462 0.171489 0.78900003 4286087549
0.3382239 0.17247558 0.78833342 4287271567
0.34253323 0.17320316 0.78666669 4287140241
0.34277084 0.17759241 0.78716677 4286745221
0.31887102 0.18161839 0.78650004 4286153341
0.3388494 0.18311442 0.78800005 4286679426
0.34272397 0.18249375 0.78637505 4286350461
0.32206178 0.1897032 0.78900003 4284969326
0.33901539 0.18748106 0.78833342 4286942598
0.34219927 0.18765867 0.78642857 4286613633
0.32166627 0.19267409 0.78800005 4285692790
0.3417058 0.19253421 0.78700006 4285560945
0.32047394 0.19940779 0.78500003 4285758328
0.34281254 0.19682527 0.787 4286877062
0.34713945 0.19893992 0.78533334 4286482564
0.32130569 0.20312425 0.78700006 4287205773
0.34328094 0.20158207 0.78800005 4285955704
0.3471109 0.20324467 0.78683335 4285166447
0.32132176 0.20633614 0.78700006 4285952106
0.34280723 0.20796676 0.78780007 4287268742
0.34710497 0.20697671 0.78675002 4287798167
0.31840542 0.21434365 0.78500003 4287007109
0.34364864 0.21219879 0.787 4286545019
0.3475382 0.21245939 0.78516674 4287271825
0.35068884 0.21030147 0.78500003 4287469978
0.34286523 0.21757171 0.78737509 4287007622
0.34293559 0.22301093 0.78780001 4286613891
0.34582064 0.22124818 0.78600001 4286417027
0.33959904 0.22848527 0.78900003 4286284668
0.34305951 0.22687234 0.787 4286153339
0.33923152 0.23465472 0.78800005 4279312394
0.34181395 0.23208952 0.78650004 4283851855
0.32018822 0.239087 0.78900003 4287319367
0.33883443 0.23758332 0.78700006 4281023525
0.34055889 0.2362307 0.78600001 4280036631
0.33859038 0.24254948 0.78800005 4283451694
0.34019747 0.24237484 0.78500003 4284300839
0.32200921 0.24633244 0.78800005 4287643716
0.33858368 0.24721232 0.78820002 4286852909
0.34252053 0.24836656 0.78620011 4288496458
0.3242262 0.2517404 0.78800005 4286792517
0.33875388 0.25113529 0.78900003 4287179314
0.3427043 0.25303048 0.78800011 4287966522
0.34692746 0.25273538 0.78620011 4289351257
0.32713249 0.25791708 0.78700006 4286201664
0.33970922 0.25747466 0.78850007 4294235102
0.34317088 0.25709018 0.78571433 4288491841
0.3476229 0.25682175 0.78500003 4288359480
0.32959929 0.26160601 0.78500003 4285756002
0.33004645 0.26409575 0.78600001 4283062855
0.33955184 0.26163793 0.78800005 4288895330
0.34278935 0.26213735 0.78740007 4287315012
0.34690326 0.26297098 0.78580004 4287050039
0.35287017 0.26226506 0.78600001 4288687929
0.34399426 0.26711488 0.78800005 4288587415
0.34771067 0.26721612 0.78650004 4285494375
0.33304042 0.27333769 0.78766674 4280963637
0.35270843 0.27365553 0.78766674 4280503343
0.3570466 0.27172196 0.78600001 4280369190
0.37783182 0.27108786 0.78500003 4280763689
0.35379204 0.27680191 0.78833342 4281030457
0.35650784 0.27713531 0.78620005 4281096764
0.37404171 0.27786943 0.78600001 4280110892
0.33464417 0.28145039 0.78600001 4281031490
0.33685997 0.28365368 0.78600001 4280439613
0.34907225 0.28275165 0.78900003 4280308533
0.35218814 0.28481454 0.78850007 4280375608
0.35697728 0.28274766 0.787 4280966465
0.36377156 0.28273547 0.78500003 4283728491
0.36536115 0.28420955 0.78600001 4281163076
0.33951122 0.28622434 0.78700006 4284583544
0.34436494 0.28884509 0.78800005 4281230670
0.34771481 0.28794321 0.78733331 4280771140
0.35180739 0.28772059 0.78750002 4280442430
0.35681847 0.28722996 0.78714287 4280507711
0.36494592 0.28602573 0.78500003 4280967237
0.35404769 0.29013833 0.78500003 4280244542
0.32732916 0.062652633 0.79175007 4286128684
0.33329687 0.062341083 0.79233336 4285997356
0.33517167 0.063583396 0.79000002 4286194481
0.32355109 0.068121128 0.79300004 4285869367
0.3335768 0.067405127 0.79300004 4286129194
0.33517247 0.066794008 0.79000002 4286128683
0.32341453 0.072385572 0.79266673 4285148213
0.33318126 0.071934879 0.7924 4285802028
0.33722991 0.073504791 0.79079998 4285801519
0.32314208 0.076617777 0.79200006 4283836210
0.33860192 0.077478074 0.792 4284038213
0.3201859 0.083915293 0.79000002 4284502112
0.33688661 0.081935287 0.79150003 4283318351
0.34161732 0.084992565 0.79000002 4284037199
0.32119873 0.08847551 0.79250002 4284045161
0.33472282 0.088644803 0.79400003 4283122007
0.33680791 0.088074915 0.79080003 4283384412
0.32140118 0.092827387 0.79300004 4283520360
0.33472502 0.092947751 0.79400003 4282928230
0.33783549 0.09252575 0.79219997 4282730599
0.34033668 0.093791336 0.79200006 4281021009
0.32180643 0.096171103 0.79400003 4282402651
0.33451676 0.097190291 0.79350007 4281745236
0.33794233 0.098009668 0.79142857 4284114559
0.34098288 0.095817678 0.79100001 4281022040
0.32180706 0.10477574 0.79400003 4282733667
0.3343097 0.10249895 0.79300004 4285956492
0.33733588 0.1028213 0.79071432 4284904581
0.33410323 0.10780609 0.79250002 4283457127
0.3379108 0.1076506 0.79133338 4284181360
0.33431798 0.11217186 0.79300004 4285168264
0.33634031 0.11153468 0.79100007 4284576121
0.33418322 0.11749589 0.79266667 4283128427
0.33657664 0.11771108 0.79120004 4282406244
0.31865278 0.12267467 0.79150003 4287201154
0.33324963 0.12184307 0.79300004 4286015601
0.33692658 0.12269193 0.79149997 4287133570
0.31905735 0.12712324 0.79250002 4285227362
0.33725095 0.12710312 0.79225004 4286278514
0.31845665 0.13224308 0.79100007 4287466634
0.33305743 0.13358216 0.79250002 4287531658
0.33680144 0.13229246 0.7911666 4286279795
0.31906456 0.13786176 0.79250002 4286478199
0.3331688 0.1379244 0.79275006 4287006340
0.33663449 0.13758405 0.79075003 4286085752
0.33436221 0.14227062 0.79300004 4286607218
0.33553407 0.14292797 0.79066676 4286673783
0.32183817 0.14996357 0.79400003 4284899422
0.33423325 0.14758494 0.79266667 4287926672
0.33772144 0.14784493 0.79071426 4287860624
0.33459753 0.15312327 0.79350007 4285621350
0.33699536 0.15196933 0.79025 4287070594
0.32144463 0.15729928 0.79300004 4285692284
0.33803418 0.15786524 0.7924 4284772986
0.32104927 0.1624714 0.79200006 4285890945
0.33816767 0.16333541 0.79250002 4284970618
0.32214135 0.16784865 0.79200006 4286023046
0.33470854 0.16715543 0.79366666 4285430135
0.33674684 0.16746174 0.79166669 4286022013
0.3202683 0.174922 0.79000002 4286350207
0.33486769 0.17261516 0.79400003 4287074443
0.33676672 0.17247681 0.79166669 4287073930
0.32047993 0.17825162 0.79050004 4286350718
0.33381709 0.17718561 0.79275006 4286153082
0.33721921 0.17753536 0.7918334 4285889654
0.34011319 0.17843622 0.79100001 4286613378
0.33804601 0.18278608 0.79219997 4286547840
0.32347846 0.18731377 0.79250002 4286416258
0.3374407 0.18731774 0.79225004 4286284668
0.33386528 0.19202641 0.79400003 4286218875
0.33832365 0.19257763 0.79171425 4286876548
0.32568538 0.19809064 0.79250002 4285626997
0.33425131 0.19670643 0.79399997 4286152825
0.33796391 0.19779523 0.79250008 4286349947
0.34021169 0.19672114 0.79100001 4285297773
0.33823779 0.20223086 0.7924 4286415997
0.34155333 0.20331696 0.79150003 4286087289
0.32296613 0.20953661 0.79100001 4287196010
0.33852696 0.20751975 0.79325008 4288256664
0.34103703 0.2070864 0.79149997 4286150261
0.33786565 0.21285041 0.79340005 4286014311
0.34148002 0.21351333 0.79200006 4287529089
0.32085145 0.218135 0.79100001 4286744191
0.33903903 0.21772394 0.79300004 4287993489
0.34035653 0.21719193 0.79100001 4286743165
0.32208115 0.22112398 0.79400003 4286809214
0.33961231 0.22220278 0.79120004 4287008391
0.32192677 0.22854902 0.79350007 4283061317
0.33799466 0.2277116 0.79240006 4286416253
0.34000954 0.22661763 0.79000002 4286482047
0.32195693 0.23287466 0.79350007 4286153331
0.33481777 0.23391515 0.79300004 4284048212
0.33699495 0.23234582 0.79200006 4282600767
0.34006041 0.23201194 0.79000002 4285233251
0.32117748 0.23660332 0.79150003 4284502851
0.33483744 0.23608081 0.79300004 4286350967
0.33733499 0.23761326 0.79200006 4284837984
0.32361466 0.24433866 0.79200006 4287511874
0.33492184 0.2447501 0.79300004 4286592813
0.33642998 0.2420346 0.79233342 4284245065
0.32664198 0.24822956 0.79400003 4287905347
0.33494434 0.24691916 0.79300004 4286787116
0.33613178 0.24817276 0.79233336 4287908936
0.32736462 0.25226575 0.79300004 4288102214
0.33721128 0.25220856 0.79133338 4291660946
0.34031355 0.25471476 0.79000002 4286455596
0.32807323 0.25520799 0.79200006 4288563023
0.3307195 0.25989786 0.79300004 4287316290
0.33806333 0.25759867 0.79233336 4290145656
0.33270836 0.26084363 0.79250002 4287443253
0.33682418 0.26285303 0.7918334 4286199607
0.33421803 0.26786128 0.79066676 4282539845
0.33847558 0.26761025 0.79300004 4282207547
0.34264874 0.26686472 0.79166669 4285362017
0.33786726 0.27229482 0.79400003 4280044330
0.34258813 0.27164993 0.79350001 4279975971
0.34756052 0.27215758 0.79100007 4281028917
0.3528409 0.27244043 0.79050004 4280172069
0.3559154 0.27232569 0.79000002 4280368932
0.33776048 0.27769488 0.79225004 4280636210
0.34276384 0.2761049 0.79375005 4280307757
0.34793171 0.27739921 0.79250002 4280767796
0.35131824 0.27767149 0.79100007 4284386670
0.33806968 0.28169188 0.79066676 4280636986
0.34386426 0.28259426 0.79350007 4283070555
0.34728003 0.28183153 0.79166669 4280505141
0.35301816 0.28225905 0.79050004 4280769339
0.35612169 0.283236 0.79000002 4280375351
0.342388 0.28600761 0.79033333 4283399270
0.34772223 0.28676894 0.79179996 4283202656
0.37717563 -0.024393881 0.79700005 4279899911
0.37593418 -0.015791584 0.79900002 4282992951
0.33190435 0.06398505 0.79500002 4286587948
0.32821533 0.06734392 0.79650003 4285867053
0.3322399 0.066997282 0.79666668 4286062887
0.32806075 0.072782911 0.79700011 4284884267
0.33136675 0.072796442 0.79716665 4285145641
0.32477394 0.079161219 0.79600006 4284363583
0.32828569 0.077553108 0.79720002 4284558391
0.33263633 0.078158632 0.79675001 4285345595
0.33614039 0.078411631 0.79566669 4285945696
0.32710853 0.082036979 0.79775 4284759888
0.33284602 0.082526416 0.79725003 4284825167
0.33614174 0.082003519 0.79566669 4284041813
0.32721204 0.086386442 0.79799998 4285489008
0.3325201 0.087574624 0.7973333 4284371300
0.33514291 0.085525252 0.79500002 4283908180
0.32710013 0.092711084 0.79816675 4283849325
0.33172134 0.092541978 0.79714286 4284177777
0.32221177 0.098446056 0.79500002 4281943384
0.32756668 0.097594634 0.79860008 4284574075
0.33217973 0.097858086 0.79720002 4283981680
0.32221201 0.10167687 0.79500002 4282273633
0.32802796 0.10322871 0.79866672 4283852407
0.33238664 0.10229381 0.79700011 4285101440
0.32241559 0.10820732 0.79550004 4285364093
0.32775575 0.10638541 0.79800004 4283720817
0.33189115 0.10801018 0.7966668 4284181109
0.32261929 0.11258808 0.79600006 4285627006
0.32816896 0.11193158 0.79900002 4284443508
0.33210477 0.11251836 0.79700005 4283983733
0.32262069 0.11690304 0.796 4284966508
0.33198449 0.11751591 0.79700005 4283390311
0.32289329 0.1223973 0.7966668 4287265664
0.32711127 0.12298997 0.79816675 4286937213
0.33159798 0.12291539 0.79766673 4286936958
0.33517483 0.12430676 0.79500002 4288582554
0.32363939 0.1280883 0.79850006 4286278254
0.32817909 0.1270884 0.79900002 4286937212
0.33308423 0.12797679 0.79775006 4287002234
0.33539021 0.12762049 0.79550004 4287133821
0.32303447 0.13216683 0.79700005 4287794315
0.32718778 0.1327513 0.79833335 4287203206
0.33227554 0.13176185 0.79666668 4286804854
0.33518419 0.13077264 0.79500002 4286606193
0.32364607 0.13674454 0.79850006 4287400842
0.32842201 0.13670598 0.79825008 4287532940
0.33100829 0.13729085 0.79533339 4288124564
0.32317862 0.14194435 0.79733342 4285819244
0.32602596 0.14332925 0.79900002 4286279537
0.3318449 0.14231795 0.79733342 4285883752
0.32223913 0.14691943 0.79500002 4286808190
0.32675645 0.14802377 0.79900002 4287531913
0.33214882 0.14708702 0.79700005 4287201665
0.32224828 0.15338577 0.79500002 4286478716
0.3274864 0.15163577 0.79900002 4285951600
0.33199796 0.15243737 0.79700005 4285819499
0.32832822 0.15769115 0.79820001 4285690487
0.33242416 0.15801455 0.79760009 4285035384
0.33587399 0.15802321 0.79650009 4284904312
0.32758495 0.16224016 0.79875004 4285036152
0.33201835 0.16257277 0.79660004 4285233274
0.33639812 0.16188632 0.796 4285562755
0.3256599 0.1669535 0.79800004 4285694081
0.33202934 0.16766541 0.79614294 4285496186
0.32465583 0.17290804 0.79550004 4286021758
0.32798389 0.17244677 0.79833335 4286088322
0.33171013 0.17249463 0.79683334 4286219394
0.32548416 0.17767167 0.79750001 4285955962
0.33238432 0.17786813 0.79666668 4286482047
0.32448757 0.18466815 0.79500002 4286482051
0.32678986 0.18211785 0.79799998 4286416513
0.33195078 0.18198602 0.79733342 4286087289
0.33554333 0.18374632 0.79550004 4286613633
0.32762229 0.1873825 0.79733342 4286153343
0.33201921 0.18742582 0.79744452 4286284669
0.33556283 0.18807013 0.79550004 4287074184
0.32838899 0.19260161 0.79650009 4285759096
0.33202669 0.19205742 0.79566669 4286087546
0.33537811 0.19335437 0.79500002 4287666321
0.32856277 0.19644845 0.796 4285298031
0.33177325 0.19693923 0.79500002 4285363823
0.33540076 0.19767848 0.79500002 4286744705
0.327865 0.20221496 0.796 4285824376
0.33277074 0.20221668 0.79733342 4285429361
0.33564228 0.20321423 0.79550004 4286021496
0.32716644 0.20762447 0.79600006 4286742909
0.33203191 0.20661545 0.79900002 4287403409
0.3370299 0.20830064 0.79699999 4288258204
0.32461104 0.21275926 0.79500002 4285949540
0.32800606 0.21140274 0.79800004 4286276451
0.33497718 0.21170625 0.79900002 4285618523
0.3359074 0.21200922 0.79600006 4287527037
0.32524192 0.21641293 0.79650009 4287005312
0.33688372 0.21732621 0.79720002 4286545532
0.32250005 0.22356731 0.79500002 4287006848
0.32587373 0.22007836 0.79800004 4286809216
0.33464792 0.22448577 0.79800004 4285031008
0.33744448 0.22259936 0.79740006 4286875009
0.32251382 0.2257327 0.79500002 4285035366
0.32633859 0.22905995 0.79900002 4283456075
0.33292189 0.22795406 0.79799998 4286283127
0.33688495 0.22693603 0.79633337 4285888627
0.32695284 0.23187263 0.79866672 4283851088
0.33235532 0.23222068 0.79685718 4283982420
0.33562428 0.23016468 0.79500002 4286548093
0.32708952 0.23748468 0.79800004 4284706394
0.33208114 0.23765166 0.79750001 4284048210
0.32482168 0.24309318 0.79500002 4287249208
